ncols        299
nrows        78
xllcorner    460156
yllcorner    4614616
cellsize     30.000000000000
NODATA_value  -9999
467 469 474 479 498 498 504 522 529 538 550 573 564 539 509 496 486 475 450 434 417 393 377 388 406 432 439 439 443 461 465 470 493 496 495 484 481 474 463 450 442 428 407 389 378 376 375 387 387 382 383 373 366 361 365 368 374 380 409 424 435 441 433 421 414 417 417 415 414 410 410 406 401 397 395 394 396 396 395 391 382 367 349 317 302 296 281 280 281 310 331 331 330 340 360 369 372 384 393 400 414 431 437 447 461 452 438 430 449 454 457 458 464 464 459 465 467 469 468 470 468 463 472 473 474 475 493 491 496 492 523 514 506 526 526 524 525 541 544 550 555 567 581 591 589 608 628 647 653 667 683 680 693 704 721 732 749 767 790 807 821 838 844 862 874 882 874 889 901 894 916 928 945 966 983 997 1010 1010 1022 1034 1032 1051 1079 1101 1116 1129 1135 1132 1124 1113 1105 1120 1120 1125 1132 1128 1130 1135 1130 1135 1142 1147 1151 1151 1149 1139 1136 1137 1136 1126 1130 1137 1133 1141 1145 1147 1136 1132 1127 1118 1114 1105 1099 1091 1100 1109 1110 1091 1086 1079 1064 1068 1072 1074 1066 1062 1059 1059 1055 1063 1076 1064 1076 1086 1098 1099 1103 1098 1089 1080 1065 1048 1044 1036 1026 1016 1003 994 985 977 968 957 957 945 935 928 919 913 912 913 898 891 883 876 867 865 861 853 851 848 846 840 839 838 835 833 831 827 818 810 804 801 794 792 791 786 782 778 773
476 477 479 484 502 508 515 533 542 553 570 566 548 528 500 489 478 465 443 425 403 403 383 393 411 440 446 452 455 478 482 489 506 506 503 491 485 480 469 453 436 421 421 412 404 405 400 409 401 392 401 390 379 372 373 373 380 392 426 438 443 442 432 423 423 421 420 419 418 416 412 405 401 399 397 396 397 396 394 390 379 364 343 312 301 301 289 280 280 286 318 330 327 339 362 370 376 387 394 401 418 435 446 458 470 459 446 446 450 461 467 470 479 473 466 472 473 473 472 475 475 475 489 493 494 494 510 519 519 528 542 541 536 547 548 546 540 567 567 558 572 563 571 581 602 612 623 636 644 644 655 661 669 688 709 731 749 769 776 791 808 825 831 842 851 861 855 869 883 898 918 918 933 948 963 978 979 995 1009 1019 1035 1052 1076 1099 1113 1130 1138 1141 1134 1128 1123 1134 1134 1134 1128 1127 1122 1123 1122 1130 1140 1148 1146 1148 1145 1127 1125 1123 1124 1116 1119 1126 1118 1124 1124 1131 1124 1127 1126 1122 1108 1099 1091 1081 1087 1094 1095 1078 1073 1066 1058 1062 1064 1066 1058 1058 1056 1054 1046 1045 1053 1052 1062 1073 1087 1088 1099 1096 1090 1078 1064 1053 1046 1037 1025 1013 1009 1000 993 981 974 966 956 942 934 927 917 910 903 898 886 885 875 869 861 859 856 848 848 845 843 835 834 835 832 831 830 825 817 811 807 801 796 793 789 785 782 777 772
495 492 493 496 513 517 523 544 554 567 578 557 542 521 500 495 483 471 452 434 413 391 398 414 429 454 461 466 472 494 498 501 506 510 503 494 495 487 479 470 452 432 421 421 420 417 414 419 415 410 401 412 399 387 378 379 391 408 423 437 444 449 443 429 425 423 421 420 418 417 413 404 401 400 399 398 399 397 394 396 389 378 359 329 312 300 289 279 279 291 314 323 325 336 358 369 378 390 396 404 404 421 437 451 465 478 469 455 460 473 479 480 483 478 473 478 478 477 476 484 487 490 490 504 506 506 521 532 539 543 552 551 549 561 564 564 561 588 591 585 572 580 571 571 602 617 625 631 659 658 658 681 679 690 711 721 735 755 776 777 795 815 815 822 830 830 842 852 864 884 901 918 931 938 954 968 979 991 1007 1019 1035 1052 1075 1095 1111 1129 1129 1143 1146 1137 1135 1129 1129 1129 1128 1112 1113 1115 1110 1121 1133 1141 1134 1134 1131 1114 1111 1112 1112 1097 1103 1108 1113 1105 1112 1118 1115 1120 1120 1116 1101 1091 1084 1072 1074 1080 1080 1065 1061 1061 1057 1051 1056 1058 1053 1052 1051 1049 1036 1034 1041 1033 1046 1056 1070 1072 1087 1093 1090 1078 1078 1066 1058 1045 1033 1022 1003 996 989 977 969 961 952 940 932 925 917 905 897 890 881 875 875 868 860 855 855 841 840 839 836 829 830 832 832 829 829 824 814 811 807 801 796 796 793 787 784 782 777
523 515 509 510 522 526 535 557 563 563 571 571 555 539 518 491 476 464 440 419 397 386 420 434 446 469 476 483 488 508 508 518 523 524 511 503 496 488 477 468 452 433 424 427 424 423 421 425 423 421 419 423 423 409 392 382 388 404 435 443 448 453 443 426 424 424 423 421 420 419 414 404 405 405 401 400 400 400 400 399 388 373 353 325 311 300 287 279 280 296 314 321 324 336 330 356 367 375 387 396 407 423 439 457 471 486 480 467 471 479 486 485 485 481 479 482 482 482 482 490 498 501 504 511 517 518 544 550 554 553 558 557 558 574 577 578 579 595 601 608 606 611 599 583 607 624 638 650 674 681 682 703 697 693 705 716 730 744 760 769 780 790 803 813 821 831 862 866 876 904 913 922 929 951 956 963 977 997 1009 1019 1025 1043 1056 1075 1106 1119 1132 1139 1138 1133 1130 1115 1113 1111 1112 1092 1098 1102 1097 1109 1124 1124 1123 1119 1117 1106 1100 1095 1092 1081 1090 1095 1100 1094 1102 1110 1107 1111 1113 1111 1091 1083 1077 1073 1066 1061 1064 1054 1055 1051 1049 1045 1049 1052 1047 1047 1044 1041 1026 1021 1025 1018 1031 1045 1045 1043 1056 1072 1084 1079 1074 1066 1051 1038 1026 1015 995 989 984 972 965 956 948 937 928 919 919 914 906 898 887 878 870 865 856 849 841 832 831 829 829 825 826 829 830 825 823 823 815 812 807 804 796 794 791 785 782 781 777
544 539 530 530 544 540 545 550 565 569 573 566 549 536 515 484 467 454 421 402 388 403 441 452 452 460 485 493 496 518 528 536 535 526 512 502 497 487 474 466 454 442 432 427 430 428 428 432 431 429 428 430 428 411 389 391 405 419 442 449 452 453 442 426 424 425 424 424 423 424 422 418 426 418 405 401 401 402 404 399 385 367 347 325 312 299 285 280 280 283 301 312 319 323 326 341 361 375 379 393 409 425 445 464 478 493 492 480 486 487 487 491 492 487 485 483 486 486 487 502 509 513 513 527 530 536 564 569 569 565 568 568 566 569 587 591 594 609 613 618 616 623 614 597 609 624 643 659 684 698 703 703 720 720 710 724 728 744 756 786 796 796 826 826 840 852 880 886 892 904 937 946 950 970 970 972 976 996 1004 1014 1038 1054 1070 1091 1118 1129 1137 1139 1125 1118 1116 1095 1094 1090 1086 1065 1072 1079 1070 1082 1099 1118 1110 1105 1104 1106 1088 1082 1079 1068 1075 1083 1087 1086 1096 1102 1095 1095 1101 1104 1092 1085 1079 1073 1064 1058 1055 1047 1046 1044 1042 1039 1042 1046 1039 1038 1036 1031 1023 1015 1007 1010 1008 1023 1036 1031 1043 1061 1074 1069 1069 1062 1040 1029 1018 1005 990 984 978 972 972 964 956 951 940 933 926 918 908 899 885 875 866 861 850 843 835 832 824 822 824 818 820 821 822 813 815 816 809 807 803 799 792 790 788 785 779 777 774
542 559 557 550 563 563 562 563 578 576 578 559 541 528 506 476 461 440 440 403 396 410 447 458 466 477 501 506 513 536 545 545 539 528 515 505 497 486 474 465 469 458 449 440 443 438 435 439 437 434 431 427 418 401 389 411 421 432 450 454 456 456 458 442 426 428 427 426 425 427 425 426 426 429 413 402 403 408 414 400 380 361 361 336 325 314 297 280 279 284 301 309 316 322 327 340 358 369 382 396 412 433 455 472 472 492 502 501 493 498 497 495 494 490 488 487 490 490 494 507 514 524 532 550 547 547 556 581 584 585 594 586 582 585 608 608 610 621 623 626 626 634 628 616 609 624 645 645 664 687 702 719 735 738 733 750 750 760 773 802 816 822 826 848 854 863 892 905 905 911 946 957 962 981 985 989 993 1006 1011 1023 1038 1067 1086 1103 1126 1134 1140 1135 1110 1110 1101 1075 1074 1071 1067 1043 1055 1063 1070 1070 1088 1106 1095 1090 1093 1095 1080 1076 1069 1053 1060 1060 1070 1074 1080 1085 1091 1083 1088 1094 1088 1082 1076 1070 1063 1055 1049 1044 1041 1038 1037 1033 1033 1035 1038 1030 1030 1027 1014 1005 997 999 1000 1015 1025 1024 1039 1050 1060 1057 1065 1057 1040 1022 1022 1011 1005 994 987 980 978 969 960 958 953 940 931 915 904 894 880 870 862 855 846 846 840 833 827 822 818 808 806 805 811 805 806 808 803 802 796 793 787 786 785 781 778 774 771
556 571 569 566 577 575 575 577 589 589 578 549 549 531 514 485 470 453 425 399 413 432 462 472 482 493 514 520 526 554 557 550 540 539 528 517 508 500 487 478 477 466 458 451 456 448 442 450 443 437 431 418 406 402 402 425 428 434 452 456 459 461 459 442 430 433 434 434 432 437 433 435 436 437 418 405 411 410 415 416 391 375 355 336 326 310 296 281 280 282 295 306 314 321 335 353 364 373 383 393 406 428 445 462 480 500 513 514 506 508 505 499 497 494 492 491 494 496 501 508 513 521 538 563 566 566 572 600 602 600 612 604 601 604 625 629 626 635 630 632 635 642 642 641 632 635 629 644 666 686 703 724 741 753 753 775 773 778 789 817 832 843 843 868 871 873 904 907 920 931 959 968 975 994 1000 1003 1007 1025 1025 1038 1050 1081 1098 1098 1123 1131 1146 1143 1112 1094 1081 1058 1055 1049 1043 1028 1036 1045 1054 1063 1081 1092 1077 1076 1081 1081 1068 1072 1069 1049 1044 1051 1064 1069 1075 1078 1081 1071 1078 1087 1083 1079 1074 1068 1061 1054 1054 1047 1041 1037 1035 1030 1028 1028 1029 1020 1021 1019 1007 1000 990 987 993 1003 1009 1022 1037 1041 1041 1030 1045 1057 1052 1035 1024 1014 1011 1000 992 986 985 977 967 957 948 937 926 906 893 893 886 874 868 855 845 842 837 832 825 819 813 801 799 797 800 792 796 798 803 793 793 790 779 780 781 781 772 769 766
570 585 584 580 590 588 588 589 595 588 580 567 538 520 503 477 462 439 411 414 434 448 476 486 499 507 526 526 533 544 567 563 551 539 528 517 509 503 493 485 488 480 472 466 477 470 461 450 449 449 433 419 416 418 420 442 444 448 460 460 462 465 459 443 434 433 445 445 442 447 447 446 446 452 444 425 416 416 419 413 386 371 355 336 327 306 294 280 280 281 288 298 298 312 324 344 361 372 391 401 415 428 453 471 487 511 525 527 516 518 511 502 500 500 497 496 499 498 501 508 520 532 550 579 588 585 593 618 620 617 625 619 618 621 650 650 650 644 657 645 643 663 661 660 650 654 639 645 665 683 703 724 746 763 774 775 793 797 798 823 837 851 859 895 900 902 929 929 935 947 972 980 988 994 1017 1018 1024 1045 1047 1042 1050 1086 1098 1112 1133 1151 1151 1134 1102 1083 1065 1058 1038 1031 1027 1012 1019 1030 1045 1043 1063 1076 1061 1057 1057 1062 1050 1057 1058 1049 1038 1045 1059 1062 1069 1072 1072 1062 1070 1080 1077 1078 1075 1071 1061 1058 1053 1047 1039 1035 1032 1027 1023 1021 1020 1011 1013 1011 1000 994 982 978 970 981 989 1003 1022 1027 1027 1020 1036 1046 1047 1041 1033 1021 1018 1007 1000 992 984 976 967 967 950 939 927 919 905 894 882 871 859 851 840 836 832 829 820 816 808 801 792 790 790 781 781 783 787 779 783 783 770 770 772 774 766 763 761
580 603 604 599 605 603 602 601 594 583 569 555 531 514 496 469 448 425 406 436 447 447 479 490 503 512 531 540 549 560 573 565 551 541 528 517 509 509 501 495 502 493 486 486 496 491 486 474 462 448 426 424 432 439 442 462 462 462 469 463 465 467 458 445 445 444 462 458 453 457 455 454 455 456 453 431 427 424 419 406 388 376 364 340 323 306 306 293 279 279 281 286 294 309 325 346 366 379 395 407 422 437 461 478 492 520 535 535 537 530 524 519 512 505 500 499 507 508 510 516 529 546 563 598 606 609 613 635 635 635 646 640 633 637 664 667 668 664 675 669 664 680 680 676 668 672 655 647 663 681 681 701 723 745 766 784 799 810 815 841 856 868 881 912 921 928 955 954 956 962 988 988 994 1003 1029 1035 1037 1064 1066 1061 1072 1105 1120 1128 1152 1158 1143 1125 1093 1073 1056 1047 1028 1028 1016 991 995 1003 1019 1037 1057 1065 1045 1038 1038 1043 1028 1035 1040 1040 1029 1040 1054 1056 1056 1059 1065 1054 1055 1063 1074 1075 1069 1063 1056 1055 1052 1046 1038 1034 1030 1025 1020 1015 1011 1006 1001 1000 991 991 986 975 963 977 992 1009 1013 1011 1008 1010 1024 1034 1041 1042 1039 1029 1024 1024 1015 1005 991 982 973 963 950 939 930 929 916 902 886 874 861 851 838 829 826 824 816 815 810 805 796 791 786 773 766 770 775 764 769 772 760 762 762 765 758 756 755
600 616 614 610 605 617 617 604 592 578 563 549 526 510 488 476 456 432 413 438 450 464 479 504 515 523 546 556 565 573 581 571 556 542 532 523 515 527 521 516 509 518 512 503 509 503 494 480 459 443 424 437 451 457 460 474 477 475 475 483 475 473 474 460 456 461 482 476 466 467 461 460 458 457 451 433 427 425 415 401 408 400 388 374 348 324 305 292 280 279 281 286 291 306 325 345 366 382 395 412 429 429 450 468 484 508 527 539 537 532 528 522 512 509 505 505 520 521 520 522 543 563 563 597 610 619 626 643 651 652 646 660 654 655 681 682 681 679 691 686 683 700 696 692 692 700 687 677 664 674 680 699 716 740 762 782 792 809 827 841 859 877 895 919 932 932 947 967 975 979 1007 1005 1007 1017 1039 1050 1059 1083 1084 1082 1091 1122 1133 1144 1152 1142 1130 1130 1102 1086 1066 1053 1031 1014 1000 977 979 996 1014 1025 1038 1044 1045 1019 1012 1022 1009 1014 1014 1020 1011 1025 1038 1047 1046 1048 1054 1045 1047 1059 1074 1069 1061 1055 1053 1053 1050 1044 1036 1036 1032 1027 1022 1017 1011 1001 996 993 991 980 975 965 962 979 994 1007 998 990 995 999 1008 1008 1019 1029 1041 1042 1035 1026 1016 1004 995 983 974 964 958 948 940 931 919 905 890 874 874 862 849 837 830 820 809 803 803 800 792 788 783 772 762 755 760 749 755 759 760 753 753 755 750 751 749
615 630 625 620 618 630 622 606 588 588 572 559 535 520 501 476 438 421 422 456 467 480 492 517 526 536 561 567 574 581 589 589 578 556 547 542 535 543 537 531 525 531 522 515 514 506 495 478 455 439 426 437 454 468 472 489 488 488 489 496 490 485 479 464 471 479 495 490 478 467 472 467 462 459 459 451 440 440 432 421 426 413 399 378 344 326 304 292 279 280 281 286 290 301 324 323 342 361 373 394 418 435 456 474 490 508 534 541 537 534 531 527 518 513 511 514 521 528 533 531 549 561 578 597 619 628 638 664 670 672 669 679 676 679 701 700 697 693 714 709 705 702 720 715 708 718 707 695 685 691 684 696 710 731 754 773 781 801 823 823 830 852 874 906 925 938 952 976 988 999 1026 1024 1022 1026 1049 1063 1076 1083 1108 1112 1117 1130 1138 1152 1156 1130 1121 1114 1085 1073 1059 1047 1019 1004 987 966 969 986 1008 1013 1022 1027 1027 1010 999 1000 983 989 995 1001 1007 1026 1039 1035 1033 1035 1043 1041 1044 1052 1067 1060 1050 1050 1043 1051 1052 1049 1042 1036 1032 1025 1016 1011 1007 997 993 989 983 971 961 952 961 975 984 984 980 981 978 976 983 995 1012 1018 1034 1042 1038 1027 1016 1005 999 991 980 970 962 952 952 940 928 916 904 884 872 858 847 842 833 819 813 802 796 794 787 782 778 771 761 749 749 739 734 737 745 739 744 749 745 745 743
632 653 648 648 637 642 635 620 601 584 569 554 529 509 486 462 424 425 442 472 482 494 506 530 540 540 565 571 578 585 594 593 580 558 556 551 549 557 550 543 537 541 532 522 517 506 506 491 470 453 439 435 474 486 489 505 503 502 500 506 503 496 481 474 483 492 505 500 500 489 489 481 475 469 461 455 447 446 441 434 434 421 403 379 342 327 308 296 284 284 279 281 285 290 302 321 336 354 375 399 424 441 461 479 497 514 542 545 539 536 536 533 528 523 520 520 533 535 541 544 566 577 592 606 627 638 650 673 682 687 685 693 693 699 721 723 722 717 738 734 728 723 743 735 727 743 729 715 703 713 704 702 724 724 731 745 762 776 792 809 831 853 876 912 934 951 962 983 998 1015 1037 1043 1043 1043 1063 1063 1074 1091 1117 1127 1129 1149 1153 1154 1145 1113 1101 1093 1065 1061 1050 1037 1007 994 977 966 954 958 977 988 1004 1010 1012 995 980 975 961 968 975 987 1005 1020 1032 1035 1018 1025 1035 1026 1035 1038 1046 1051 1049 1040 1037 1049 1051 1048 1041 1036 1031 1025 1011 1006 1003 991 988 983 977 970 964 952 948 959 963 968 967 963 965 976 971 988 1003 1008 1026 1040 1040 1033 1022 1011 1015 1004 993 984 971 961 951 940 922 911 900 882 873 866 853 850 840 826 821 807 797 793 796 786 778 773 764 759 748 739 733 727 732 726 733 742 738 739 737
652 673 674 667 653 644 632 616 601 580 565 548 525 496 469 446 425 441 459 473 484 496 509 533 544 556 565 584 590 593 601 598 586 567 569 564 561 566 559 551 551 556 548 537 526 517 503 489 472 453 442 449 487 499 504 517 518 514 510 515 511 511 501 483 484 494 511 515 510 499 501 492 482 474 464 458 453 451 446 442 434 425 406 406 375 348 337 312 300 285 279 280 285 293 306 316 336 353 375 405 428 446 469 487 487 503 527 550 547 540 538 536 531 536 536 535 533 545 552 560 586 595 604 614 632 647 647 657 671 683 687 693 703 713 721 745 745 742 760 756 754 748 765 760 752 759 747 747 734 742 735 727 724 745 749 756 784 786 791 810 839 860 880 914 939 958 970 989 1005 1005 1020 1046 1058 1062 1084 1082 1088 1102 1129 1142 1147 1153 1150 1144 1130 1101 1083 1070 1065 1042 1042 1035 1006 995 979 966 937 948 970 981 1000 1003 1001 975 964 956 961 948 962 982 996 996 1009 1017 1002 1001 1009 1011 1023 1031 1045 1045 1041 1030 1037 1042 1048 1045 1040 1036 1030 1022 1011 1011 1001 988 984 981 976 962 955 948 948 952 949 955 954 956 956 960 962 980 993 1000 1000 1018 1036 1040 1035 1025 1015 1002 991 981 964 956 947 935 917 905 895 889 887 879 864 859 859 846 833 828 814 803 798 788 777 769 759 754 746 737 731 725 721 716 723 735 738 733 735
668 687 684 670 656 639 624 608 594 578 563 545 515 515 481 455 429 435 456 485 496 510 523 549 562 569 576 595 600 602 610 606 597 583 602 589 578 585 576 567 561 567 556 542 530 515 502 489 481 462 446 462 495 506 513 520 527 529 528 537 529 519 503 491 497 504 520 524 521 512 517 507 492 479 466 460 455 458 454 451 446 440 428 406 378 354 344 322 302 288 278 280 286 294 307 322 344 360 360 386 409 432 453 474 491 507 534 550 543 535 537 538 538 545 549 547 546 560 568 577 595 604 610 613 617 627 641 653 666 676 683 691 705 722 738 759 765 764 780 776 772 772 789 784 777 785 775 761 751 757 751 748 744 768 774 779 807 811 804 813 842 864 864 883 910 933 957 975 994 1010 1027 1057 1076 1085 1104 1102 1107 1114 1145 1156 1158 1142 1135 1126 1126 1101 1089 1073 1058 1034 1023 1014 988 979 961 950 926 940 965 975 992 990 979 952 947 947 936 920 935 960 972 981 991 1001 983 984 997 996 1012 1029 1041 1037 1032 1024 1029 1034 1041 1041 1037 1039 1036 1030 1020 1006 996 986 977 973 967 957 951 946 942 930 933 945 940 940 940 942 937 948 967 979 997 1014 1034 1040 1033 1022 1012 996 984 973 954 944 937 928 913 906 906 911 907 899 888 875 862 851 838 831 816 805 798 788 776 767 755 748 743 738 731 731 725 720 714 713 728 727 729
683 687 688 669 653 633 619 619 603 585 576 560 538 506 471 446 433 449 469 485 509 525 535 567 575 581 590 612 612 615 629 626 619 612 620 609 597 585 589 580 573 576 565 547 532 522 507 494 489 489 472 457 473 496 511 520 534 540 540 545 539 523 502 500 507 515 533 535 534 527 529 529 519 502 484 471 463 461 458 454 450 441 429 408 389 365 345 321 302 289 279 280 280 285 290 307 332 352 367 389 410 432 453 475 495 512 537 543 534 535 529 535 539 540 540 550 554 565 576 587 599 607 611 613 608 618 633 653 660 670 680 689 705 725 745 746 762 773 787 795 795 793 801 797 793 785 793 781 766 777 771 768 767 793 796 802 821 826 830 829 842 846 863 883 910 929 953 979 1002 1018 1036 1064 1084 1103 1118 1121 1123 1131 1151 1159 1160 1150 1128 1117 1107 1082 1072 1063 1049 1023 1009 998 976 964 951 935 919 936 957 957 964 977 972 942 935 930 920 911 931 955 950 961 979 986 965 970 980 996 1011 1028 1036 1025 1029 1024 1016 1011 1022 1032 1028 1034 1033 1029 1019 1008 997 986 977 970 962 953 948 943 943 933 926 923 922 929 929 931 928 942 958 979 987 1008 1032 1039 1029 1017 1007 992 980 980 965 954 940 931 924 918 914 911 912 899 886 872 861 852 841 831 819 806 796 785 773 773 765 755 749 743 746 738 728 722 713 706 718 720 724
695 695 700 683 665 651 632 620 601 584 572 554 527 495 463 441 443 466 483 496 523 538 538 571 581 588 597 617 623 628 646 639 631 625 634 624 612 600 606 593 585 587 575 575 558 553 538 516 503 494 483 468 476 498 515 526 546 550 550 550 542 523 502 513 520 520 541 545 545 543 543 536 526 508 492 477 467 466 461 457 451 441 430 414 398 376 376 350 323 304 291 279 279 284 292 320 341 359 372 389 411 434 452 477 500 517 537 533 533 526 520 521 525 525 534 544 553 563 579 591 593 596 601 604 598 612 629 643 654 654 668 670 684 706 730 748 760 771 789 800 806 803 807 806 803 800 810 801 789 800 800 792 790 810 813 817 840 842 844 844 857 855 866 888 919 938 958 987 1009 1024 1042 1065 1065 1087 1112 1122 1132 1142 1161 1161 1153 1139 1115 1107 1090 1062 1057 1049 1039 1012 1001 990 968 968 950 933 911 910 928 947 953 962 955 927 919 912 904 903 925 941 930 950 963 968 949 949 956 968 987 1008 1020 1013 1016 1013 1005 1004 1011 1019 1015 1022 1028 1029 1024 1012 998 985 987 979 971 960 949 943 939 928 921 916 913 918 920 920 923 937 951 972 993 1013 1033 1038 1035 1025 1012 997 985 978 963 949 943 932 930 924 918 917 899 890 881 866 859 851 841 842 832 822 804 795 786 774 769 762 757 752 750 742 733 723 712 702 706 710 719
711 709 697 680 666 651 634 619 600 580 565 546 527 484 457 438 443 458 481 495 518 536 555 579 591 601 610 627 635 642 646 658 647 641 645 636 626 626 625 616 608 608 595 583 570 562 546 522 503 497 488 478 485 505 522 534 555 559 557 562 551 540 520 525 530 535 541 553 550 547 545 539 528 511 506 484 475 471 463 457 457 449 441 431 419 406 385 357 328 303 293 279 280 286 301 328 347 364 375 390 412 432 432 454 483 504 527 531 524 520 516 518 521 522 529 538 547 557 573 586 593 581 586 586 587 594 610 623 631 648 661 667 683 706 732 749 762 773 789 792 803 808 813 814 814 814 826 826 820 830 821 814 809 833 834 836 840 856 857 858 871 867 877 899 925 950 950 970 990 1011 1028 1048 1064 1085 1112 1124 1140 1153 1156 1151 1141 1127 1103 1092 1078 1048 1037 1037 1032 1001 996 990 982 956 938 925 902 900 920 937 938 948 938 913 902 894 890 898 915 915 923 925 936 946 925 931 949 963 983 1001 1008 1004 1006 1003 998 998 1004 1009 1015 1014 1014 1023 1025 1022 1012 999 992 982 972 959 946 938 933 923 916 909 913 908 910 914 926 926 940 951 981 1002 1021 1040 1031 1019 1007 994 984 975 963 964 952 942 936 928 917 905 894 894 883 867 860 855 850 833 825 816 804 797 787 778 775 769 763 758 750 743 733 722 722 712 701 693 705
720 714 695 680 666 651 633 616 598 570 570 554 536 493 471 448 456 477 491 503 532 546 565 579 603 612 620 639 642 650 659 646 648 649 642 643 641 635 633 621 616 608 603 590 577 560 545 520 506 503 494 483 499 499 516 532 555 561 564 562 546 536 527 542 543 548 552 558 556 551 546 538 528 520 519 511 492 481 471 461 455 444 437 430 419 407 384 360 323 302 291 280 280 290 308 328 335 354 367 380 390 410 430 456 484 508 529 526 517 512 513 516 518 522 521 528 542 537 552 568 579 570 574 581 582 592 606 617 630 642 650 667 687 709 732 749 759 766 766 764 781 796 799 811 819 822 831 842 836 830 844 838 835 856 855 853 854 871 871 870 884 886 886 889 911 927 950 970 991 1012 1031 1050 1061 1080 1109 1121 1143 1155 1141 1134 1126 1126 1105 1093 1079 1066 1042 1025 1012 983 975 972 967 941 929 915 890 891 905 923 922 931 924 924 899 887 876 881 893 897 904 915 923 925 906 926 946 962 984 995 1001 1004 996 993 993 985 991 997 1002 1002 1009 1017 1019 1019 1013 1001 991 982 972 959 941 932 927 916 909 909 901 892 899 904 917 931 944 959 987 1009 1030 1040 1026 1016 1006 1000 990 981 970 970 957 957 951 942 933 919 903 890 877 866 857 850 843 833 823 814 805 795 788 782 778 773 773 766 759 751 742 731 720 710 698 687 699
721 711 695 678 678 663 638 624 608 574 559 540 521 480 461 446 475 490 501 515 542 555 572 588 613 613 621 648 646 642 644 636 636 639 632 635 637 638 629 623 618 613 604 591 575 551 537 537 521 525 516 505 500 514 527 546 558 563 566 558 546 543 543 553 553 554 557 563 563 561 553 544 535 526 515 510 498 483 471 462 453 436 426 420 414 394 378 358 317 317 302 292 278 280 292 314 339 358 369 383 394 410 429 456 486 511 529 522 510 509 509 509 513 516 514 514 519 534 548 559 566 562 574 578 578 589 603 617 639 651 661 673 683 696 713 726 740 747 753 759 773 787 785 797 809 820 828 846 850 848 862 861 857 879 879 880 877 894 891 886 900 899 900 902 921 934 950 969 999 1018 1037 1058 1069 1083 1108 1111 1125 1144 1135 1126 1121 1113 1091 1078 1067 1056 1037 1019 998 975 959 952 949 924 914 901 875 875 877 894 895 907 916 910 879 863 866 875 879 878 897 903 906 903 897 919 939 959 958 982 992 995 990 988 985 980 986 992 997 1000 1006 1013 1015 1015 1010 1000 989 979 970 970 952 936 923 909 906 901 894 885 894 904 924 935 947 966 993 1015 1034 1037 1019 1016 1010 1016 1010 998 988 985 975 961 960 945 930 917 899 889 879 866 868 854 845 835 823 813 813 804 798 791 788 782 777 768 760 751 742 731 718 707 695 683 689
732 719 704 690 672 656 625 612 595 561 543 523 501 473 456 458 475 501 514 514 543 553 568 586 615 627 639 653 646 638 635 629 627 628 632 622 625 630 619 618 615 615 604 596 582 556 547 538 532 541 529 514 500 524 542 552 560 563 561 548 550 553 553 562 561 559 560 565 565 563 553 541 530 521 501 495 491 478 481 471 455 434 413 413 401 377 377 371 353 320 301 289 279 279 294 319 344 361 372 389 401 415 431 461 488 488 513 524 516 505 500 503 509 512 504 505 514 532 543 551 555 557 572 576 578 598 598 614 630 646 657 670 689 702 714 712 721 729 743 753 764 773 785 782 798 812 819 839 839 855 865 873 877 903 904 901 898 909 906 903 900 908 911 916 932 940 957 974 1008 1008 1027 1052 1066 1081 1096 1115 1130 1140 1135 1114 1105 1098 1077 1067 1057 1047 1025 1009 993 968 968 948 935 915 908 899 886 860 864 881 884 895 901 894 860 848 861 858 856 870 890 884 884 884 885 899 918 937 961 978 989 991 979 976 977 975 982 987 993 998 1004 1011 1015 1013 1013 1004 992 984 974 966 941 928 914 898 896 892 888 884 898 912 924 943 953 976 1001 1001 1020 1029 1015 1011 1015 1016 1014 1002 993 995 984 973 960 939 924 910 900 895 890 881 889 879 861 854 843 828 814 808 801 794 788 785 779 770 759 751 741 730 715 703 692 692 682
726 716 693 679 663 647 616 604 583 553 537 510 490 481 467 465 479 504 517 529 555 570 590 606 634 644 653 657 645 636 632 625 622 622 620 618 612 615 606 607 607 607 590 585 572 557 551 549 548 546 535 519 517 535 548 554 555 558 557 549 554 556 559 570 572 568 566 567 565 560 550 535 523 512 488 486 480 480 497 487 478 449 430 406 387 375 372 369 354 315 298 283 279 281 299 325 349 364 376 383 397 412 426 455 471 491 511 515 509 500 492 496 498 502 493 501 517 528 533 540 540 533 547 561 566 581 602 616 628 645 659 674 683 696 705 691 702 716 736 740 747 754 754 752 770 788 794 811 830 851 861 878 897 916 918 917 913 924 919 915 912 920 922 922 942 946 948 960 983 1005 1032 1053 1072 1091 1106 1118 1133 1131 1121 1101 1091 1083 1064 1053 1053 1044 1019 1010 999 970 956 941 925 899 890 881 871 848 850 867 872 883 887 877 848 834 834 835 841 843 861 862 865 870 880 910 928 945 958 970 981 983 967 968 972 975 980 980 985 992 997 1002 1009 1011 1008 998 982 975 967 955 932 921 907 891 884 881 879 895 911 911 925 945 954 966 993 1010 1020 1020 1003 1000 1012 1013 1015 1009 1001 994 983 970 955 935 935 922 916 914 907 899 900 885 870 868 853 836 817 813 807 798 791 784 777 767 753 753 746 738 721 711 701 691 681
718 706 679 665 652 632 605 605 593 575 545 527 501 474 476 486 497 521 530 545 571 591 613 624 647 654 661 657 646 646 635 632 628 623 622 624 611 607 596 595 594 594 582 578 566 557 559 557 553 548 548 536 529 542 544 551 559 558 556 552 559 562 565 570 577 574 570 564 561 554 545 538 524 511 498 498 500 499 497 479 463 449 426 405 383 375 371 363 342 308 295 279 278 278 286 307 338 353 369 383 405 423 440 469 485 497 509 503 499 492 481 487 490 492 480 490 504 517 512 516 524 516 530 542 556 571 595 611 620 637 653 669 667 677 687 691 674 693 709 707 721 734 739 750 763 777 789 805 821 844 857 879 902 916 930 934 931 947 940 932 927 935 930 933 958 960 962 968 991 1010 1033 1053 1070 1090 1106 1120 1128 1120 1120 1099 1090 1081 1063 1052 1039 1028 1002 993 983 970 943 929 915 887 873 866 857 834 837 854 843 861 874 876 863 839 824 835 824 832 849 846 859 872 888 920 933 942 944 960 967 967 960 961 964 969 974 980 987 994 999 1003 1008 1005 1000 990 971 963 953 942 922 912 900 900 884 875 870 888 910 924 937 947 960 978 998 1012 1013 1009 990 991 1003 1013 1010 1010 1010 1000 988 976 962 947 935 925 931 928 923 909 907 894 879 868 860 842 825 825 815 815 803 793 781 772 758 748 738 729 714 707 700 691 688
709 709 693 665 648 636 606 588 577 565 535 514 491 484 495 505 513 537 547 559 571 613 629 629 650 655 663 669 662 646 637 635 631 627 625 623 611 600 596 585 585 582 577 575 575 569 564 563 560 552 549 544 542 553 555 557 559 564 563 560 568 570 574 576 577 577 573 562 559 554 547 528 514 502 498 513 513 508 485 462 446 438 420 402 384 373 369 369 355 324 302 290 278 279 289 314 344 360 378 392 413 433 452 478 491 495 499 489 489 487 479 468 478 480 477 491 500 508 498 500 506 522 525 530 543 562 583 603 620 625 625 640 636 646 657 665 665 685 697 704 711 726 738 763 773 780 789 805 813 835 859 859 876 900 922 939 948 961 955 947 940 950 947 947 958 977 979 983 1010 1020 1036 1052 1056 1071 1091 1109 1121 1120 1110 1088 1081 1073 1063 1044 1030 1015 991 979 968 954 926 914 902 875 875 860 850 832 823 825 833 853 868 872 856 833 815 818 808 818 832 853 865 882 899 899 914 919 919 935 950 958 958 960 963 969 974 980 987 999 1003 1004 1006 1001 989 978 961 961 950 937 920 912 903 895 878 866 865 894 914 927 939 946 964 982 1000 1004 1002 999 989 980 981 996 998 1000 1004 992 983 972 960 950 940 934 944 938 933 919 909 899 886 886 874 864 850 842 830 818 805 791 779 768 753 741 732 722 719 713 706 697 701
715 701 682 659 642 624 599 576 561 551 517 497 481 500 511 519 519 543 553 562 573 605 628 641 658 666 674 674 662 648 640 638 634 629 626 619 608 598 598 587 581 577 573 575 573 568 564 562 558 554 554 553 550 566 567 566 565 572 570 570 577 578 579 581 582 576 567 558 555 549 541 522 515 515 514 517 511 500 473 453 436 436 415 401 386 367 367 364 349 311 298 284 279 280 298 322 350 368 385 401 423 440 440 467 482 486 485 473 477 475 470 461 470 469 470 482 484 491 508 517 521 549 552 553 553 572 563 569 592 599 613 624 626 635 642 652 662 672 689 721 734 746 755 786 798 798 805 829 826 826 850 868 884 902 929 946 959 972 969 962 955 969 968 971 974 995 995 998 1018 1023 1032 1044 1068 1081 1097 1112 1111 1106 1097 1080 1075 1066 1056 1035 1022 1007 980 966 966 953 930 917 904 880 868 854 842 820 810 817 833 845 862 869 848 830 809 805 798 798 811 835 855 867 884 882 893 905 919 928 947 955 960 962 965 969 973 979 988 1000 1004 1004 1004 1001 991 978 968 951 940 929 910 902 895 888 868 855 864 901 917 928 937 953 953 968 982 994 990 990 977 969 973 987 984 988 995 985 981 973 962 957 951 948 944 956 948 938 928 909 900 887 875 867 855 844 829 816 803 785 774 763 753 737 731 726 736 736 728 720 727
713 699 677 655 638 619 593 573 553 535 533 511 488 488 511 522 533 558 568 577 587 621 638 650 672 681 683 674 662 649 642 638 638 634 629 620 611 600 593 584 578 574 572 572 570 566 561 558 555 554 559 561 562 574 577 578 577 584 580 578 584 586 587 587 580 569 559 558 552 544 531 523 520 518 517 516 513 501 472 461 446 428 398 380 372 367 351 345 335 302 293 279 279 285 307 329 337 357 375 395 425 434 446 467 475 473 471 458 462 464 462 454 456 460 467 471 490 490 522 533 540 545 580 580 579 598 589 584 588 598 604 614 639 649 657 659 674 683 701 701 733 749 765 790 802 811 824 843 843 845 865 876 896 914 944 958 969 972 981 976 976 988 989 993 994 1014 1015 1014 1033 1039 1049 1058 1083 1092 1104 1112 1101 1094 1087 1075 1069 1059 1059 1036 1023 1010 984 969 955 943 924 909 893 880 864 852 838 815 803 807 824 837 855 855 854 842 824 805 785 797 815 835 844 858 871 866 877 891 909 926 947 956 965 965 965 967 969 973 979 989 998 1002 1003 988 979 971 960 941 932 922 901 890 884 877 854 849 849 872 908 923 936 950 955 968 982 981 975 976 965 957 963 977 970 977 984 985 983 983 980 983 974 968 963 970 960 946 930 908 898 887 874 866 856 844 824 808 798 780 768 768 756 755 752 747 761 754 748 738 743
711 697 675 652 652 634 613 592 576 554 534 511 489 499 521 535 547 576 586 594 605 635 648 661 684 687 687 685 671 661 648 642 637 632 626 613 602 593 588 581 577 574 573 572 568 564 562 562 560 559 566 569 571 583 586 588 588 592 587 584 591 592 590 588 574 562 557 555 547 547 538 528 523 520 518 515 506 484 463 450 431 412 390 379 367 354 333 325 318 297 297 285 278 278 294 316 343 363 382 403 435 451 464 473 463 457 454 442 446 450 454 441 446 445 471 484 491 506 542 553 566 573 606 607 603 618 612 604 599 619 619 628 666 666 672 678 698 692 692 713 739 757 775 799 813 825 837 859 863 866 885 889 910 930 944 959 971 980 997 995 990 1007 1011 1015 1015 1034 1032 1032 1054 1058 1067 1076 1100 1101 1105 1106 1096 1091 1085 1071 1067 1059 1048 1022 1009 997 970 958 947 936 916 901 886 875 859 848 833 829 812 798 797 807 826 846 842 833 815 796 780 798 818 836 832 845 856 859 873 890 890 917 932 951 962 966 966 967 966 971 978 986 993 996 995 973 970 963 949 930 922 914 902 895 880 871 847 842 855 883 912 929 941 940 947 965 977 961 960 961 953 949 958 958 951 958 968 977 979 987 988 990 987 981 979 973 964 949 927 907 896 885 869 860 852 852 832 819 805 790 779 768 760 780 775 768 786 778 768 758 757
723 709 694 666 646 630 613 600 582 558 534 510 494 507 537 550 563 589 603 614 614 638 647 661 674 689 688 681 667 658 647 641 634 627 620 606 597 589 584 582 578 578 574 579 573 569 571 567 564 563 575 578 582 592 595 599 598 607 597 591 591 595 592 592 584 569 559 554 545 541 535 525 521 518 516 512 499 479 463 447 431 411 389 380 380 363 336 327 313 299 290 279 278 289 311 326 343 369 390 411 440 458 464 467 451 451 444 428 431 434 438 434 439 453 471 502 518 531 563 574 587 599 625 628 624 636 629 629 623 642 641 641 650 682 693 698 718 717 711 722 741 761 781 808 827 841 852 884 884 888 888 906 905 920 954 969 982 993 1010 1009 1007 1030 1030 1030 1031 1052 1054 1054 1054 1087 1087 1093 1100 1098 1098 1097 1086 1083 1076 1061 1054 1043 1034 1007 995 984 970 949 939 930 909 909 894 882 866 856 844 825 812 790 788 801 819 835 842 815 803 786 775 793 811 821 801 818 831 849 868 884 905 927 938 953 962 966 966 966 962 968 976 985 982 983 979 966 966 961 954 928 917 909 902 883 872 856 838 841 864 889 912 928 938 927 943 958 965 947 945 948 949 942 945 950 941 951 963 972 969 983 989 981 982 980 978 964 962 946 927 925 907 892 876 864 852 842 827 815 802 797 792 791 786 804 801 797 786 799 791 774 789
721 707 689 668 651 637 623 607 584 558 533 505 501 516 532 549 561 584 603 618 630 647 658 670 681 695 688 677 663 653 645 639 630 623 615 609 600 594 588 588 585 582 583 582 576 575 575 570 571 573 581 586 590 602 609 613 613 631 624 610 601 606 599 592 580 566 557 550 537 534 530 518 515 514 514 507 497 481 481 457 443 428 394 379 367 352 329 322 308 294 282 278 279 308 330 342 353 375 396 396 422 445 463 458 441 437 433 420 424 427 431 437 448 468 487 514 536 551 574 589 602 602 632 643 647 661 653 646 642 661 659 660 669 696 709 716 737 735 732 730 749 764 764 791 812 835 855 883 902 908 910 924 919 932 962 979 996 1005 1020 1024 1026 1047 1049 1047 1047 1065 1069 1077 1080 1102 1102 1103 1085 1084 1087 1088 1077 1073 1067 1049 1039 1030 1021 990 980 980 971 949 938 931 913 901 888 878 861 849 837 822 809 783 779 793 809 822 825 800 800 790 762 767 781 792 797 816 829 857 874 895 913 939 947 952 960 956 960 962 959 965 965 972 969 971 970 960 957 951 944 919 906 896 891 874 864 849 832 844 869 893 908 908 918 911 920 938 945 928 933 938 939 927 937 939 931 942 954 962 960 970 978 964 963 963 963 945 950 954 946 924 906 888 875 862 847 838 826 814 805 812 807 811 808 821 821 818 813 824 818 809 801
720 705 688 680 664 649 630 606 606 581 551 526 501 513 544 556 569 584 613 627 638 654 663 675 687 699 685 672 657 657 648 642 635 628 618 609 600 595 592 590 587 586 587 583 582 582 580 574 576 579 586 589 593 598 620 628 633 639 633 626 614 611 601 591 577 564 554 545 532 528 523 518 511 509 509 505 501 486 473 446 426 413 375 362 351 337 321 308 300 294 278 278 283 295 323 344 358 376 384 403 426 440 445 443 425 423 422 420 422 428 431 441 457 476 495 504 525 546 567 585 601 616 646 664 666 661 677 670 665 682 680 679 683 712 725 733 755 761 759 751 763 767 771 791 817 841 861 890 911 923 927 941 939 945 974 993 1006 1014 1023 1030 1037 1042 1063 1065 1065 1091 1097 1099 1100 1101 1098 1092 1071 1069 1072 1074 1063 1062 1056 1056 1036 1028 1018 990 979 971 960 936 928 922 906 896 883 872 853 842 830 822 798 777 777 769 785 798 805 791 785 775 752 759 776 786 817 832 843 857 888 906 923 954 955 952 952 950 950 950 950 955 960 965 959 961 962 960 948 942 933 911 894 884 878 863 853 853 835 828 842 867 886 901 907 911 917 930 934 910 920 926 922 916 928 929 923 931 940 940 936 948 959 964 942 941 941 934 940 946 945 925 908 887 877 864 847 837 833 825 825 818 833 826 825 842 838 835 831 845 832 815 814
719 708 708 699 685 670 651 622 598 574 551 519 506 527 553 565 580 594 622 636 647 661 667 667 677 696 698 680 668 654 645 641 635 627 616 607 603 598 594 593 590 588 587 587 587 588 589 587 582 584 597 601 606 611 637 641 641 643 633 627 620 610 601 587 577 562 562 551 537 527 520 514 507 505 504 496 491 476 462 432 413 390 375 356 338 328 312 312 301 296 278 278 280 308 334 354 371 390 397 412 426 419 423 426 406 407 408 414 423 423 426 442 450 467 489 513 528 548 567 594 612 629 657 677 685 683 696 691 685 701 701 701 703 732 731 744 755 786 784 770 785 786 788 800 830 850 867 895 917 934 942 951 956 955 960 988 1003 1015 1035 1045 1054 1058 1081 1083 1085 1102 1102 1104 1102 1091 1085 1077 1071 1055 1052 1053 1036 1043 1047 1044 1026 1015 1004 980 971 961 949 927 919 913 906 888 878 866 861 850 838 826 807 792 771 759 779 788 792 777 768 756 752 774 789 802 836 848 861 874 887 905 923 951 965 958 951 950 949 948 950 950 952 955 949 952 954 952 939 933 924 918 902 885 873 858 852 843 835 819 838 863 876 890 898 904 915 919 915 897 909 911 911 894 906 916 906 914 923 929 927 936 940 940 929 930 930 921 931 939 941 925 913 892 899 882 871 855 856 847 843 840 856 851 846 866 860 855 850 858 843 824 827
727 718 709 694 681 665 644 611 590 565 544 516 520 541 564 579 591 591 619 630 643 663 671 675 683 702 694 677 665 652 644 641 635 627 618 609 606 600 600 597 594 592 589 590 593 594 593 597 595 595 611 616 621 628 646 647 647 643 632 624 624 613 605 595 582 572 560 548 532 520 511 508 501 500 497 483 480 468 451 427 407 407 383 379 365 342 323 305 298 290 278 278 285 323 347 366 380 399 410 421 420 397 404 404 387 393 399 407 426 432 438 460 471 487 499 521 536 553 575 600 620 637 662 681 681 696 703 710 708 720 722 722 731 761 757 769 778 801 800 789 811 809 806 815 847 847 862 893 907 922 939 960 969 973 976 1004 1014 1024 1052 1061 1069 1076 1098 1099 1102 1095 1093 1093 1095 1083 1081 1075 1064 1045 1039 1036 1022 1029 1035 1033 1015 1004 990 973 963 954 940 921 921 911 903 883 876 870 854 847 837 822 801 786 765 752 768 780 781 760 748 745 757 789 789 803 822 839 852 867 886 910 933 950 960 956 951 952 950 946 946 941 944 947 942 942 944 945 933 929 924 909 896 878 865 848 842 835 826 810 828 857 866 878 888 900 894 910 907 883 885 895 895 881 896 905 906 905 911 918 918 924 927 928 920 920 919 908 908 920 930 923 923 915 899 889 878 867 870 867 863 861 877 873 870 890 884 878 870 869 858 849 839
726 716 706 694 672 654 634 604 582 554 538 532 522 537 567 580 591 603 629 638 649 663 680 686 692 707 692 676 664 656 647 642 643 634 628 622 615 607 601 597 596 593 591 596 599 599 599 608 607 609 626 629 637 643 651 651 649 649 638 629 620 606 594 587 580 569 557 544 529 518 508 502 493 491 486 486 469 468 463 441 420 401 389 378 363 339 316 302 296 285 278 280 296 323 361 375 388 399 410 418 411 379 377 381 390 402 409 416 438 447 453 460 485 494 505 529 541 556 556 581 602 624 642 663 679 694 686 700 712 720 736 743 754 778 779 786 796 818 819 819 834 835 837 832 853 863 879 893 918 933 947 966 978 988 996 1016 1027 1039 1063 1076 1086 1086 1104 1110 1107 1100 1083 1082 1083 1077 1075 1065 1052 1032 1026 1020 1001 1012 1022 1023 1004 992 992 982 966 957 946 930 918 906 893 875 864 860 841 837 830 817 792 778 755 752 758 769 769 754 742 740 754 777 792 808 814 830 847 865 880 909 932 950 950 953 952 953 952 952 942 935 933 936 933 935 935 935 923 920 916 909 891 873 858 842 833 824 816 805 805 819 835 858 868 881 892 901 893 883 871 881 880 872 889 897 896 895 904 910 907 913 913 916 906 909 907 905 897 905 915 913 923 920 908 900 887 877 885 885 884 881 897 897 895 892 905 895 883 858 842 825 821
724 713 700 685 666 666 647 618 599 575 548 529 537 554 579 590 602 618 639 645 657 671 691 699 709 705 705 691 677 668 661 653 643 633 629 624 614 607 600 597 599 595 593 601 603 606 607 615 615 618 637 641 645 649 654 651 648 643 631 624 614 590 582 579 576 564 554 538 526 526 517 506 485 481 477 472 459 455 453 422 408 398 392 372 354 332 312 300 292 281 278 278 288 314 362 377 389 408 404 398 391 365 360 375 397 413 421 428 447 456 464 474 478 487 497 514 534 546 561 581 602 623 639 659 669 680 673 687 705 725 737 754 767 768 784 791 798 820 829 837 846 851 854 852 870 881 894 906 929 944 954 969 982 994 1006 1008 1026 1041 1053 1066 1080 1093 1105 1109 1101 1091 1075 1074 1076 1070 1064 1051 1040 1018 1008 1002 981 981 992 1007 997 992 984 974 958 949 940 925 914 903 888 870 856 845 823 819 815 806 791 780 766 746 727 745 757 738 732 743 761 769 783 799 803 823 841 861 887 910 927 927 931 941 948 940 947 950 941 931 926 929 926 927 927 925 913 911 908 902 883 869 869 851 839 828 817 807 797 811 825 845 860 874 890 891 881 870 860 866 862 866 883 890 890 875 886 896 893 896 899 901 894 898 895 892 885 893 900 909 927 925 916 911 898 898 905 902 902 899 920 919 916 913 898 885 872 842 821 810 804
744 723 711 697 679 663 641 617 597 570 544 541 555 568 579 602 621 633 649 656 656 667 692 704 713 711 700 688 677 668 663 655 643 635 630 624 610 606 602 599 598 596 596 601 603 606 611 617 622 629 637 650 652 654 658 649 641 635 621 613 603 578 573 573 571 562 557 547 532 521 514 499 479 473 467 463 450 442 435 412 403 399 389 365 348 348 329 312 298 286 278 280 303 336 378 393 402 399 389 381 374 349 361 379 397 412 412 426 441 452 458 467 475 482 493 515 537 552 565 581 600 621 639 646 656 664 660 660 677 696 709 728 746 756 774 793 806 820 832 847 846 854 859 863 869 883 900 916 932 932 943 941 957 975 992 1001 1026 1042 1053 1059 1075 1088 1096 1098 1090 1081 1064 1063 1068 1053 1053 1045 1035 1011 999 989 981 964 974 989 984 983 976 966 950 943 934 920 909 896 884 864 864 851 835 815 805 799 774 763 749 733 716 731 742 727 725 739 756 758 773 787 803 812 829 845 881 897 912 922 924 932 938 933 941 944 938 925 921 922 926 917 917 915 907 905 901 898 874 870 862 845 834 823 816 797 790 801 825 838 856 872 886 883 870 861 853 852 854 845 864 877 879 867 877 888 893 883 884 885 883 889 885 882 874 880 894 893 907 925 930 932 922 910 905 922 920 919 931 928 916 908 881 870 858 828 811 800 790
738 721 710 696 679 661 638 617 595 563 541 556 569 579 579 603 622 637 654 660 668 676 707 718 719 711 694 685 675 668 663 658 645 638 630 623 620 609 606 603 600 599 600 601 605 607 611 619 629 641 648 657 657 658 660 647 636 636 619 611 602 588 569 564 563 555 551 540 528 512 501 487 473 465 461 455 444 436 436 426 412 407 398 380 360 341 320 308 296 281 277 287 324 357 383 393 400 399 375 365 365 340 352 365 379 393 410 425 438 445 454 464 469 479 494 515 541 560 569 586 601 601 616 621 635 643 636 649 668 689 699 716 735 756 778 793 807 811 821 834 842 834 850 850 847 856 873 899 902 918 931 941 941 962 984 993 1013 1031 1048 1052 1067 1081 1089 1087 1087 1080 1056 1050 1052 1053 1034 1029 1019 994 981 972 966 950 959 973 975 975 967 959 944 944 937 930 914 903 891 870 858 847 831 814 798 786 766 751 735 721 711 718 728 715 715 715 733 751 766 780 798 827 845 862 891 903 912 916 917 922 928 929 936 938 932 919 919 915 913 908 909 909 900 894 885 878 854 855 852 832 822 814 807 786 785 800 819 843 843 858 879 879 872 861 844 843 842 840 858 867 866 861 871 878 882 872 871 874 870 870 874 872 858 865 878 895 907 924 935 943 932 925 922 937 934 931 919 910 901 892 873 863 850 823 818 806 791
730 717 708 695 675 656 636 616 615 592 562 554 569 580 589 618 637 647 665 673 679 691 717 723 716 706 690 681 673 668 668 664 661 653 639 629 620 612 608 604 605 603 604 604 607 608 609 624 636 647 654 663 666 671 669 659 644 633 613 602 589 579 560 558 557 550 543 532 521 500 491 481 481 472 465 463 461 446 434 422 412 405 394 374 354 335 315 301 292 279 278 300 342 369 368 379 386 387 368 357 343 341 354 362 373 389 408 423 429 438 450 460 468 482 499 499 523 547 569 586 596 604 614 616 623 629 630 643 661 681 695 715 737 760 778 788 800 784 794 805 815 809 823 839 829 843 866 887 887 902 916 928 932 949 975 986 1001 1018 1018 1029 1045 1062 1077 1081 1077 1067 1042 1038 1037 1037 1020 1012 1004 978 968 963 954 935 947 947 948 964 965 958 945 939 931 923 905 896 884 859 847 841 829 813 800 784 762 745 728 728 714 704 707 716 700 715 736 767 783 797 812 839 856 873 896 903 908 912 912 916 916 923 926 931 931 922 915 910 905 898 901 902 888 884 874 860 838 838 840 832 808 802 802 780 778 789 812 842 854 868 878 870 863 854 834 831 830 840 850 857 857 855 864 864 870 863 862 861 853 857 859 856 852 863 879 895 908 926 937 955 949 941 938 944 944 936 917 903 892 884 853 839 827 823 797 789 780
730 713 713 703 681 671 655 635 612 587 558 565 580 591 602 631 647 658 665 685 694 709 720 721 721 710 692 686 678 670 667 664 661 651 639 629 620 614 610 608 611 608 606 607 610 610 609 623 633 646 654 673 675 673 669 659 645 631 609 593 580 570 555 554 552 542 542 535 526 515 501 491 481 481 474 469 466 450 433 422 414 400 387 371 352 329 311 298 298 286 278 280 309 348 354 367 375 373 347 335 331 339 348 355 368 386 404 420 429 416 426 441 452 468 487 506 528 552 572 580 591 603 611 611 616 621 630 636 656 676 700 700 721 747 762 771 776 770 783 794 801 802 815 822 829 839 860 875 871 885 901 916 904 925 943 960 979 992 1009 1028 1045 1062 1077 1076 1065 1052 1030 1024 1021 1021 1002 995 988 977 967 959 952 927 917 932 948 954 955 950 939 932 923 915 899 890 877 847 835 832 825 816 809 801 788 756 743 725 704 692 691 695 709 729 748 783 795 809 824 849 865 882 882 894 901 906 908 911 913 920 927 930 928 920 912 906 900 885 886 888 888 875 865 850 845 829 821 823 800 794 786 770 786 808 827 852 864 877 878 860 854 844 825 819 818 818 823 838 846 839 850 858 862 854 852 848 853 845 845 845 852 864 879 893 906 927 927 938 958 960 957 955 944 931 917 890 876 865 833 823 815 807 779 771 767
743 717 707 692 677 669 652 633 607 582 557 580 594 608 618 642 657 672 672 690 697 708 716 718 714 702 689 682 675 669 666 664 661 645 638 628 619 619 617 617 623 619 611 608 617 620 623 636 646 655 664 675 674 671 667 658 644 627 606 586 586 574 552 549 549 538 534 530 524 519 514 503 491 491 484 476 471 454 437 422 414 398 398 389 372 351 324 306 296 281 278 276 312 334 334 349 358 356 329 322 329 330 339 339 350 368 387 402 412 406 420 434 449 468 489 508 531 555 569 571 579 593 605 604 610 610 616 628 644 663 690 706 728 746 747 754 758 761 773 781 788 791 800 804 818 839 839 849 847 859 870 887 899 922 940 949 970 989 1006 1027 1046 1063 1076 1065 1051 1038 1017 1017 1012 1008 994 988 983 965 957 950 941 910 901 922 937 943 947 944 929 922 914 907 891 891 881 863 843 828 821 801 799 793 778 745 731 716 688 680 682 694 731 747 766 793 793 805 820 841 853 869 887 889 898 905 906 911 914 921 929 930 927 916 909 902 890 870 870 869 873 866 866 859 841 823 808 804 783 776 769 777 801 822 839 861 876 876 867 857 851 845 826 818 810 810 811 824 832 830 843 853 856 844 840 837 841 833 835 841 839 849 862 876 889 905 922 939 956 960 959 946 936 923 908 882 863 848 827 813 798 788 777 768 758
732 711 697 685 675 665 647 631 601 576 561 580 595 611 625 643 653 670 683 696 707 713 714 712 708 696 685 679 673 669 663 662 661 653 641 636 629 634 629 626 634 629 624 618 628 631 632 636 663 670 674 670 671 669 669 663 655 641 618 603 581 565 548 544 542 538 531 528 523 518 515 508 498 496 496 487 491 477 462 444 432 418 402 389 376 353 325 305 293 279 278 279 299 319 316 328 339 339 325 314 317 324 325 337 350 370 384 393 397 402 415 431 444 462 485 508 528 552 565 565 566 571 583 583 592 604 615 643 659 674 697 713 728 740 727 732 744 761 756 765 765 768 777 782 794 812 827 833 834 845 858 878 899 919 938 949 971 989 1008 1027 1048 1048 1064 1055 1048 1035 1016 1010 1005 1000 985 979 974 965 947 940 927 897 891 904 924 925 937 937 924 918 912 906 890 880 872 863 838 822 808 788 782 775 759 731 717 701 674 683 683 704 734 749 764 778 796 811 826 838 850 868 882 884 892 901 908 913 919 927 931 930 930 925 912 906 896 868 860 858 863 856 857 853 834 819 802 789 764 758 762 777 815 815 836 858 867 869 864 849 843 835 819 812 804 803 803 815 823 830 835 844 846 835 835 831 828 822 824 829 833 845 858 874 892 907 924 939 957 957 950 930 923 913 900 881 881 866 843 829 814 793 775 761 748
721 705 692 684 674 674 661 644 617 595 575 577 612 623 636 654 666 680 688 702 711 715 711 707 701 692 682 682 676 670 664 660 659 645 641 640 637 645 642 637 645 639 632 628 638 642 649 657 674 674 671 662 661 663 664 657 650 636 614 601 579 560 547 541 536 534 529 526 522 516 516 512 505 495 497 497 479 477 468 454 439 426 412 397 381 355 325 305 292 279 278 278 279 288 288 298 310 321 312 306 309 316 321 333 351 370 379 381 390 398 413 429 435 451 466 488 506 525 546 559 565 569 576 577 589 605 620 652 668 683 701 710 718 724 708 709 718 734 728 739 754 754 761 771 789 802 808 821 819 835 855 877 892 910 931 931 949 970 986 1003 1024 1046 1056 1040 1032 1024 1011 1003 997 991 973 969 962 954 936 924 910 898 888 881 888 893 912 924 912 908 903 897 875 867 861 852 831 818 802 772 763 751 751 729 718 701 668 680 703 721 747 761 772 785 793 809 825 825 841 860 875 884 890 901 901 909 917 928 931 930 928 921 908 900 887 861 852 849 852 845 847 844 824 811 794 794 762 749 751 767 804 829 847 852 860 860 856 841 833 824 812 807 796 795 798 808 808 814 810 824 832 828 828 825 822 814 815 823 828 840 856 875 898 915 928 941 951 945 945 926 914 907 900 877 866 855 830 824 813 792 772 758 742
731 713 703 692 684 672 656 638 612 590 581 597 624 634 645 666 678 687 693 709 716 716 719 708 703 698 690 682 674 669 661 656 652 650 650 649 648 655 652 649 645 652 652 647 652 652 656 666 678 673 667 658 653 655 660 643 638 626 614 602 576 560 548 539 539 535 531 527 523 513 509 502 495 487 489 485 479 465 466 458 439 429 417 401 386 386 361 338 309 294 279 278 278 280 288 280 292 305 298 302 305 312 324 337 354 369 369 370 372 386 402 419 435 458 471 487 505 523 537 556 563 566 571 576 593 610 631 656 656 672 688 692 695 702 693 695 706 720 714 730 746 741 752 767 786 781 791 806 819 816 835 856 867 880 900 926 936 960 980 1005 1023 1040 1043 1023 1021 1017 1011 996 986 980 960 960 954 950 931 922 909 887 877 870 875 881 900 914 912 897 892 885 858 851 845 839 824 822 811 783 760 747 739 716 704 680 668 689 712 730 751 760 763 776 782 796 813 793 814 833 856 880 884 891 901 909 920 930 928 927 923 916 902 892 875 856 844 838 841 826 831 833 832 814 801 782 749 738 755 775 811 830 841 841 847 844 847 830 822 816 816 804 799 790 778 791 797 799 803 815 823 819 820 818 816 808 809 815 828 847 864 881 891 906 922 930 941 944 939 918 904 893 884 857 842 834 830 810 797 784 762 749 733
726 711 702 692 684 667 651 631 607 590 599 615 635 644 654 654 677 687 697 715 719 723 719 708 703 698 690 684 676 669 662 655 653 650 659 659 659 667 665 663 659 663 661 658 666 666 669 675 682 674 665 658 646 641 644 628 626 617 617 606 600 580 564 549 540 535 529 524 516 513 496 488 485 475 470 465 463 451 456 456 444 434 424 411 396 385 366 338 320 301 285 282 278 277 276 278 281 288 290 298 298 303 312 333 346 359 362 362 370 391 407 428 444 455 468 481 499 520 534 552 553 558 558 565 588 601 615 643 658 671 684 674 681 689 679 683 695 701 706 720 731 741 747 747 758 757 768 781 796 818 836 853 859 872 895 918 930 954 976 1005 1020 1027 1026 1011 1013 1013 1012 1002 988 976 955 947 942 938 915 906 896 887 867 860 864 871 889 905 904 881 881 875 851 844 836 827 807 805 798 783 752 737 724 708 691 664 667 692 712 734 739 739 743 747 751 767 780 793 819 840 866 880 884 891 900 906 915 924 921 921 917 910 895 895 883 868 850 835 828 815 816 821 820 800 787 765 736 738 761 785 809 817 826 841 832 833 828 818 819 814 806 793 790 781 768 779 783 787 799 809 815 809 811 810 810 801 801 803 816 836 857 873 893 905 921 930 942 939 933 912 897 881 868 837 826 820 816 803 792 783 761 750 737
722 710 700 691 682 660 647 626 606 606 607 618 637 643 652 664 689 700 710 724 731 730 717 710 704 697 690 683 675 669 674 668 664 662 670 670 668 678 674 670 667 675 672 670 677 676 677 680 687 675 664 656 654 641 631 618 616 614 610 603 601 584 563 550 541 535 527 519 511 504 490 480 476 467 462 456 451 439 443 445 428 419 409 402 392 384 371 347 330 310 294 293 284 279 279 279 277 277 277 288 296 301 310 330 347 358 355 365 376 396 412 430 445 442 464 479 485 500 519 533 536 544 557 570 604 611 622 645 655 663 670 656 669 677 662 671 679 679 682 695 710 722 730 738 747 754 769 785 801 814 832 846 854 869 890 909 929 951 975 975 999 1011 1008 993 998 1005 1005 993 981 969 947 938 929 921 897 891 884 875 855 848 848 839 860 876 892 871 864 858 837 829 819 810 791 789 784 771 743 729 718 700 681 681 658 665 690 709 715 722 727 736 742 759 776 795 823 844 865 878 880 888 897 899 907 907 906 912 913 909 894 886 875 863 846 833 823 811 803 806 806 782 767 749 726 739 739 762 780 792 802 815 820 819 812 802 806 801 795 781 780 773 761 770 773 784 793 801 801 807 800 801 802 790 793 806 821 839 860 877 888 901 915 926 941 939 929 912 894 894 875 852 837 827 818 807 790 775 758 754 748
720 710 696 696 685 667 656 645 624 616 624 631 645 651 663 676 702 712 718 738 740 733 718 713 713 708 698 692 686 679 681 674 672 671 681 681 681 691 688 682 677 687 683 678 677 682 682 680 689 688 676 663 652 640 626 614 609 607 605 601 600 585 563 550 542 534 524 524 516 508 499 488 476 462 455 449 442 432 428 430 428 402 400 397 392 386 374 356 360 342 320 312 301 293 284 281 278 277 277 284 294 297 308 328 346 355 358 372 384 397 397 407 421 438 454 472 485 499 512 524 532 553 572 590 612 621 631 637 642 647 652 635 642 653 661 648 657 667 673 689 706 720 725 732 739 753 767 783 799 803 822 838 854 858 873 890 914 932 952 978 994 996 993 979 985 993 997 985 976 962 947 930 917 904 894 886 882 873 852 842 832 827 847 865 874 858 851 845 837 814 802 794 778 772 765 765 740 731 721 700 689 672 655 665 685 703 715 715 719 729 755 768 780 800 824 845 865 867 872 875 881 881 887 896 906 903 904 899 884 878 870 860 844 833 822 811 797 789 789 771 764 754 739 716 732 755 764 778 794 809 810 807 798 786 793 791 783 769 772 763 763 757 761 769 777 784 791 796 787 790 790 777 793 807 822 837 857 874 888 897 915 915 928 940 939 927 910 893 874 867 853 837 823 806 787 770 758 773 768
740 722 710 694 678 665 656 644 623 630 635 641 654 661 674 687 711 720 720 742 746 748 740 723 715 710 700 701 698 689 692 685 681 681 693 693 692 700 697 697 692 699 696 695 691 699 692 688 699 689 674 661 650 638 623 612 607 603 600 595 590 590 580 557 547 540 530 522 514 507 496 485 472 456 448 442 437 429 422 415 407 400 400 398 394 392 384 374 358 346 328 319 305 299 291 291 280 277 277 280 287 291 303 326 326 344 341 358 375 384 394 407 421 448 464 478 486 490 502 515 546 567 585 601 611 611 620 616 623 628 632 620 628 637 640 635 644 657 664 683 703 717 723 730 741 751 761 761 773 787 802 818 837 869 885 899 926 943 962 983 984 980 979 964 972 982 987 978 978 968 954 938 923 909 888 877 871 862 839 826 817 817 835 853 862 843 837 830 823 806 800 790 771 761 750 745 724 715 707 684 675 662 651 665 680 693 708 724 732 747 780 780 789 797 821 834 853 861 862 866 873 873 876 885 897 890 890 887 872 869 863 855 849 843 835 827 812 796 781 767 754 739 727 712 715 742 753 771 790 803 801 795 782 770 770 777 777 755 758 759 751 754 755 765 769 775 779 783 770 771 773 775 792 806 818 813 828 847 867 885 901 919 928 942 939 927 913 898 881 877 857 837 822 802 788 777 777 794 793
739 722 707 692 677 666 656 646 629 645 652 653 668 667 674 685 710 720 732 742 751 751 744 727 717 709 704 714 711 702 704 700 696 696 709 706 702 701 709 706 703 710 708 706 704 712 706 701 704 687 672 660 648 636 621 621 613 608 602 595 585 578 571 551 544 537 529 521 513 505 486 475 466 456 441 436 436 429 425 419 411 402 400 397 392 386 378 371 352 342 329 319 307 301 298 301 292 281 281 277 277 279 279 294 319 336 335 354 371 384 402 415 431 449 465 473 480 487 503 503 533 555 568 585 583 597 608 616 605 611 616 603 613 619 624 634 645 652 683 693 693 703 728 736 739 743 761 772 780 806 815 828 848 884 902 915 941 957 973 983 970 966 966 963 950 960 970 967 967 957 947 931 916 903 879 864 856 849 825 817 812 817 823 823 840 829 827 822 810 789 786 779 757 745 732 727 705 698 692 684 660 649 650 673 687 687 707 732 741 752 786 797 806 812 840 853 859 861 856 863 869 863 869 878 886 874 874 876 864 860 857 852 840 840 835 827 810 796 782 769 756 738 723 705 706 731 746 746 770 788 793 791 781 765 754 764 763 746 748 744 745 748 752 760 759 764 767 768 755 755 756 762 780 789 801 810 827 846 868 890 905 921 930 942 941 930 919 903 890 877 872 848 831 825 806 801 797 811 810
742 722 703 689 677 666 666 656 649 662 666 668 668 681 686 696 717 732 741 748 756 757 749 729 717 713 713 728 729 721 713 717 713 711 719 715 711 710 718 715 712 719 717 715 714 718 715 711 704 704 682 670 658 644 632 621 614 609 602 596 586 575 565 548 543 536 529 519 510 499 495 482 471 461 451 440 432 426 423 418 411 405 402 398 392 383 373 363 353 340 327 320 322 315 310 320 312 300 287 279 277 278 279 291 312 324 339 355 372 387 406 421 435 431 441 450 459 474 493 512 533 551 558 569 564 579 591 600 586 590 595 582 597 607 607 633 649 666 677 709 717 723 757 758 759 754 781 795 800 823 831 844 863 902 917 930 930 955 968 978 964 958 953 950 939 948 960 956 956 948 939 924 911 896 879 852 842 842 820 816 812 807 797 811 824 813 810 800 789 769 766 763 757 731 717 710 690 685 679 679 650 643 644 674 687 695 712 737 751 771 797 813 819 827 852 856 855 852 850 857 857 849 855 865 870 861 865 867 856 852 847 841 828 830 831 825 806 794 782 769 753 753 737 714 700 697 720 747 771 786 782 773 763 748 743 752 751 736 735 732 742 745 746 746 741 747 752 753 741 748 760 772 796 797 800 815 834 854 872 893 907 923 933 945 945 945 938 923 908 893 875 855 838 828 820 818 814 823 825
761 743 721 705 689 676 666 662 663 681 680 680 679 690 696 704 725 738 746 753 762 762 762 751 729 722 727 748 744 735 724 732 731 724 731 725 722 720 732 724 722 731 728 728 725 730 725 722 715 699 678 667 652 639 629 620 616 611 604 597 586 574 562 550 550 543 535 524 516 506 493 478 468 460 452 438 428 427 424 420 414 408 402 397 392 382 382 372 361 351 338 329 330 326 325 328 320 307 299 287 277 277 277 284 309 323 340 340 357 376 388 401 419 417 425 436 453 479 499 519 535 535 541 552 548 560 571 579 558 560 570 572 589 603 621 649 664 684 697 735 746 754 776 779 775 772 799 808 817 839 839 847 861 904 918 932 945 963 969 971 953 947 942 936 929 939 948 947 947 939 932 923 913 901 885 859 844 828 809 808 807 801 788 799 810 799 791 782 772 750 746 745 743 722 716 706 685 681 674 665 633 645 657 691 703 710 720 747 756 777 797 823 833 843 844 846 845 842 831 840 847 844 852 859 861 849 854 858 856 847 839 829 816 821 823 823 807 799 790 775 762 746 731 708 695 695 720 750 770 780 763 755 748 738 733 745 741 733 723 719 727 734 732 734 741 731 734 737 753 770 782 792 809 807 807 819 836 856 856 877 896 911 925 935 951 950 941 930 913 896 886 867 847 837 834 832 828 838 841
764 744 719 703 688 676 675 677 678 689 687 686 686 696 701 701 717 731 741 751 765 770 766 751 732 738 746 760 753 743 736 745 744 740 746 737 734 734 746 743 739 733 741 738 734 736 729 725 714 691 672 663 644 634 627 620 616 611 611 605 595 582 572 565 556 547 533 523 515 503 482 472 464 458 448 440 433 427 425 422 422 416 407 401 395 386 377 369 360 356 346 337 338 338 334 328 325 310 301 293 282 282 278 277 281 301 312 333 353 374 378 389 403 417 420 439 459 482 499 516 526 513 513 522 514 526 540 551 538 546 556 572 608 624 637 668 680 700 720 755 767 773 794 796 796 798 821 818 824 830 858 869 886 923 934 945 955 958 959 958 943 937 931 926 920 920 931 942 941 939 930 909 899 887 872 850 837 821 801 799 801 795 777 790 798 799 783 783 772 755 741 731 726 703 696 689 675 667 656 640 646 666 679 691 719 730 739 770 770 778 786 811 826 838 834 833 830 827 822 829 834 844 849 853 852 836 842 848 849 842 842 830 810 807 808 811 795 790 783 775 752 740 723 701 690 694 723 753 768 771 749 749 741 735 716 729 738 733 713 711 726 725 715 717 725 716 726 739 778 789 799 806 809 813 815 814 821 836 857 878 898 915 929 940 952 951 946 936 919 902 892 874 854 837 856 854 850 865 861
760 739 712 697 684 677 689 691 693 700 695 691 690 693 698 705 726 736 743 755 770 773 766 746 744 752 760 771 762 753 747 762 762 761 769 760 752 748 757 753 749 744 750 746 743 739 730 724 711 681 666 656 653 644 635 627 621 615 610 603 590 581 573 567 558 549 531 521 512 495 479 469 461 455 458 452 446 441 437 435 428 414 402 397 393 377 372 365 366 362 354 343 348 347 343 343 338 323 309 302 296 287 279 277 277 289 311 333 350 367 364 374 388 400 423 442 442 458 474 489 500 483 491 502 505 516 525 529 546 559 574 591 623 639 654 683 695 716 716 752 771 782 806 812 815 819 843 843 843 850 885 899 912 934 943 949 954 943 943 943 932 931 924 918 904 911 923 934 931 926 917 897 886 875 861 844 830 815 795 785 789 789 772 764 776 788 784 779 767 751 740 727 713 692 682 678 660 649 634 627 667 684 684 695 724 740 751 783 793 797 801 821 830 832 820 820 820 818 815 825 833 842 845 845 846 830 826 830 839 833 830 820 804 798 794 794 782 779 774 766 744 730 714 692 686 686 697 741 753 759 748 740 729 718 709 723 728 724 698 705 718 702 699 701 711 723 723 742 780 787 796 805 806 814 820 822 829 836 857 880 898 916 934 941 952 955 952 943 943 927 916 899 881 861 874 872 869 884 883
750 734 701 701 692 692 702 701 701 705 698 693 692 698 705 712 726 741 746 759 775 775 764 745 758 758 766 778 774 766 762 770 774 775 769 773 767 762 769 763 758 753 757 753 748 735 735 728 720 696 674 661 653 643 634 627 621 615 608 601 593 585 576 566 556 543 530 526 517 506 489 480 472 464 461 453 447 440 449 445 430 402 395 390 386 385 378 372 366 374 366 358 361 359 354 348 339 322 307 303 297 289 280 277 277 286 311 334 346 355 348 357 370 384 405 427 443 449 462 469 477 470 485 495 505 529 535 541 568 575 589 607 617 632 653 681 696 711 732 762 779 794 806 832 839 842 859 861 866 873 900 914 924 924 933 940 944 930 930 931 932 918 913 907 895 902 912 924 919 914 906 886 876 866 866 847 836 821 809 790 773 772 758 752 767 783 775 770 762 744 734 722 706 682 672 668 668 643 627 621 659 681 693 706 744 760 771 795 802 808 813 817 817 820 820 808 807 807 802 813 824 834 831 836 838 824 818 820 828 822 820 812 804 796 787 782 769 766 763 763 745 734 720 692 682 677 709 739 743 743 748 729 718 706 704 712 712 707 686 696 696 687 687 686 696 730 747 765 780 781 789 798 797 811 822 826 835 840 855 876 894 894 911 933 944 956 964 959 950 935 926 907 888 876 892 890 887 903 900
751 741 709 701 701 703 712 712 710 711 705 700 698 716 723 729 735 754 761 761 778 781 780 764 766 774 778 785 780 773 770 783 784 783 779 780 775 772 772 770 770 764 762 759 754 743 731 724 713 689 670 658 652 643 633 628 622 614 607 602 595 595 588 578 564 551 535 518 506 497 486 483 478 468 462 455 451 450 460 447 421 417 409 409 398 417 405 394 383 380 370 363 372 367 358 350 339 327 314 305 298 290 279 277 277 277 286 313 329 339 347 356 371 388 405 419 436 436 446 454 456 479 496 510 524 547 547 553 580 589 595 603 628 641 661 688 710 727 745 764 781 797 816 843 850 855 864 864 871 876 885 899 914 913 927 933 930 913 919 921 921 906 900 893 887 893 903 913 907 910 906 888 875 868 857 836 825 814 804 784 766 757 742 746 765 778 761 757 754 733 733 720 711 692 676 663 653 623 616 634 670 688 702 722 759 773 786 796 796 799 810 798 804 803 804 792 794 795 795 808 819 829 818 829 829 818 812 811 818 813 813 809 802 805 797 785 771 755 748 749 731 721 708 678 668 669 713 726 726 729 733 714 703 694 686 698 699 695 675 675 684 672 678 693 713 742 754 769 778 773 778 787 790 806 820 820 833 843 848 871 883 901 916 939 948 963 970 967 957 946 935 915 904 894 912 910 906 924 920
743 730 710 711 713 714 727 724 719 711 713 710 712 734 739 747 750 773 779 778 791 788 783 767 777 783 786 785 791 788 783 790 788 786 786 783 780 777 774 773 770 766 759 755 750 743 726 719 706 684 670 659 652 644 636 636 632 623 613 607 602 596 589 578 561 541 527 512 504 497 490 482 477 470 468 463 464 464 467 457 437 417 438 432 424 439 428 409 395 385 375 373 381 372 362 350 343 330 330 317 303 298 290 279 276 276 287 306 319 335 345 353 371 388 389 400 420 436 432 445 445 474 490 506 523 552 563 569 593 605 612 621 646 655 671 688 714 730 744 770 789 789 811 826 843 852 851 857 867 875 878 886 899 913 918 922 917 898 904 910 910 892 892 886 872 876 883 893 896 904 901 888 865 857 848 826 817 808 799 778 760 745 730 746 746 765 755 749 747 743 724 712 703 686 673 654 637 609 625 650 681 699 716 737 769 769 783 794 780 779 786 784 786 787 790 781 781 784 789 799 807 813 812 819 821 818 804 804 804 802 808 810 808 807 803 785 768 752 736 733 713 704 692 678 653 667 708 711 711 710 716 701 698 687 673 681 681 680 656 661 666 672 688 709 728 736 746 758 768 752 759 766 770 786 803 819 831 846 859 871 889 905 925 942 954 971 978 977 966 952 944 944 931 921 935 932 928 924 936
741 725 710 721 724 726 734 734 730 724 722 724 728 754 763 768 769 795 796 793 791 797 784 773 784 789 793 793 799 800 801 801 793 789 786 781 777 775 774 772 769 764 755 750 744 735 722 712 698 691 681 671 660 650 643 639 632 623 614 608 603 596 587 575 552 533 521 515 506 497 487 489 485 480 474 480 472 470 453 441 435 438 451 447 445 457 448 423 403 392 386 384 384 385 374 365 355 342 326 313 302 298 292 280 277 277 284 300 314 331 345 346 364 378 361 370 382 397 420 437 456 486 501 516 535 565 577 582 593 614 627 636 659 669 685 685 703 718 732 753 775 796 815 821 836 846 851 843 852 866 872 877 888 902 903 909 909 888 884 890 897 888 883 878 872 864 872 883 883 894 892 877 855 847 836 816 809 800 800 780 766 749 733 723 741 756 740 738 735 733 716 704 696 677 664 643 620 616 641 641 662 692 709 727 755 774 782 784 758 762 776 770 770 774 777 769 770 776 789 789 795 795 799 807 811 812 796 795 797 790 798 807 808 804 797 783 768 748 732 718 697 685 685 676 651 645 660 689 696 696 701 687 682 670 673 663 663 658 648 654 660 673 693 693 712 717 727 734 742 738 748 756 762 780 796 815 826 841 859 875 887 903 927 946 960 960 979 992 985 973 967 958 948 941 954 948 945 940 948
740 740 723 728 729 731 736 735 730 726 735 740 747 771 783 789 786 807 816 813 809 805 805 788 784 789 794 798 804 806 808 801 792 788 784 773 770 771 772 767 764 760 749 749 744 738 725 716 704 686 678 669 659 649 642 638 632 620 615 610 600 592 580 568 546 546 534 528 516 505 496 496 493 490 489 480 471 465 451 449 452 452 459 459 458 466 466 459 435 413 403 397 393 386 373 365 353 338 320 308 301 297 292 281 276 277 285 306 306 315 322 339 344 353 364 374 388 404 437 455 472 497 512 530 547 569 585 595 604 611 625 639 656 666 675 686 708 724 738 746 770 787 807 809 819 828 836 830 843 857 853 866 865 876 874 888 894 873 870 877 888 875 870 864 858 853 861 871 874 883 880 867 855 844 836 814 807 798 789 762 749 736 718 717 733 743 726 725 725 724 706 693 686 674 661 648 626 602 625 649 671 699 718 734 753 767 767 764 737 757 767 759 758 761 766 753 756 759 771 772 780 789 791 795 798 800 785 787 789 781 787 799 802 789 787 779 779 762 749 732 717 696 679 664 648 639 653 679 682 681 685 669 662 652 658 645 644 644 645 652 656 666 677 689 702 706 715 724 730 730 740 749 762 771 789 806 817 833 851 851 875 892 910 940 953 971 989 1000 992 983 967 973 967 961 970 964 959 954 958
749 735 729 736 735 736 739 737 733 732 749 756 762 771 801 803 803 822 829 831 830 822 808 793 793 795 799 801 812 812 808 801 791 785 780 765 762 762 762 755 758 757 744 741 738 733 718 707 694 686 671 664 656 646 637 632 626 614 611 611 595 587 579 570 551 545 538 528 521 509 502 503 495 492 490 470 465 451 464 464 464 463 469 469 468 469 469 460 440 423 413 405 396 380 369 361 349 333 316 305 300 300 297 291 281 276 278 304 319 326 334 355 358 361 392 397 405 421 452 471 486 497 520 520 539 552 564 584 599 615 632 646 661 670 679 691 708 720 732 746 757 775 794 788 788 800 807 806 816 832 849 855 853 864 859 874 881 873 856 863 873 856 854 852 849 844 844 854 853 865 872 869 845 835 825 814 794 784 773 746 734 721 709 709 723 727 713 713 714 715 707 695 681 674 645 631 610 604 629 653 677 697 721 733 742 749 745 741 719 736 754 760 746 745 748 740 746 755 764 766 778 786 781 784 787 786 775 778 779 781 769 780 789 784 783 780 771 758 747 733 718 701 680 662 647 635 647 679 670 665 669 651 650 644 639 629 636 640 658 664 667 670 681 687 695 706 706 716 722 729 738 748 755 765 775 788 811 824 839 854 889 906 921 940 965 985 997 1009 1001 992 982 991 984 977 991 985 977 971 975
740 739 738 741 740 739 742 741 739 742 756 767 774 780 810 819 823 845 845 843 836 826 811 797 803 804 809 810 821 814 806 806 795 787 780 766 761 753 749 741 744 746 730 730 730 726 706 696 687 680 665 659 654 653 649 639 625 614 607 601 583 576 569 561 550 545 539 530 527 518 513 497 489 485 485 475 470 467 475 476 475 472 478 478 476 473 471 459 441 434 420 407 396 375 364 364 351 342 329 313 302 300 296 291 278 276 280 313 327 335 346 370 379 387 408 416 426 426 451 466 481 493 509 522 542 539 558 580 600 619 637 651 666 675 684 694 698 708 708 719 727 748 762 756 768 783 794 798 811 829 840 839 840 847 846 860 864 859 844 848 848 838 841 845 846 838 830 841 842 853 861 858 838 828 819 805 784 774 761 739 727 727 713 685 697 709 697 699 701 705 696 685 672 660 634 619 600 605 629 651 675 699 699 720 724 725 724 717 716 734 744 748 733 734 735 736 746 755 761 763 772 776 768 774 774 776 762 762 764 767 764 778 785 776 772 769 764 752 745 731 715 700 680 664 641 641 628 641 658 652 648 631 631 628 626 635 642 650 676 680 681 682 693 694 696 701 717 717 721 740 741 747 754 773 786 797 827 841 854 869 904 918 932 947 974 995 1007 1018 1018 1011 1004 1011 1005 999 1004 996 989 981 983
745 745 743 744 744 743 743 747 746 750 775 789 802 803 826 844 848 869 863 850 840 835 822 807 803 822 827 830 845 827 814 803 790 777 769 759 753 742 738 729 731 731 730 718 718 715 695 695 687 679 664 661 657 652 650 643 630 618 605 593 583 576 567 557 555 548 541 534 541 535 522 500 495 488 480 483 477 475 475 486 485 480 491 491 486 480 469 458 447 454 442 426 409 387 369 360 351 335 326 315 303 299 296 289 279 276 282 318 332 342 356 366 380 392 401 415 427 438 457 467 481 494 503 517 532 531 554 580 603 622 641 655 655 668 675 681 675 683 695 711 720 736 745 744 757 776 789 797 811 829 840 822 821 829 815 831 846 852 837 831 834 822 831 838 840 829 821 828 842 842 849 848 833 821 811 811 794 780 768 745 733 721 704 678 683 694 697 686 688 693 684 676 664 650 626 606 606 590 611 634 654 684 705 719 724 710 702 699 705 718 727 732 719 722 728 734 744 752 752 747 751 757 762 761 765 766 753 750 751 756 763 774 777 755 755 758 756 744 738 738 728 710 696 678 651 635 620 635 643 636 631 615 615 620 625 646 657 669 676 699 700 700 719 714 712 712 734 738 739 759 757 756 761 779 796 812 827 855 872 888 916 932 932 943 973 989 1003 1028 1029 1024 1017 1024 1018 1012 1004 1005 997 990 985
751 751 752 754 749 748 748 754 757 764 793 811 820 820 850 862 869 869 874 874 861 857 847 838 825 848 849 849 848 834 814 801 780 764 758 759 739 731 726 714 719 719 718 707 706 705 687 682 675 667 657 656 654 652 647 640 630 617 608 596 585 575 575 567 564 561 555 546 541 533 518 500 504 499 490 491 484 482 485 495 493 491 503 503 501 492 480 471 461 454 442 425 408 380 366 355 346 330 323 312 305 299 296 290 281 281 276 279 315 336 352 372 381 392 403 417 429 446 447 455 470 485 488 505 516 531 527 551 579 599 622 642 659 657 665 671 666 676 691 707 712 725 731 744 756 775 787 795 795 807 818 810 810 806 804 819 834 841 828 819 818 822 819 827 832 816 810 817 829 818 831 839 834 828 817 805 788 774 760 745 727 713 693 668 670 680 685 677 678 682 670 675 669 656 633 615 594 596 626 643 663 687 703 711 713 684 682 691 695 705 712 717 704 713 721 723 731 738 744 736 738 745 753 756 759 758 746 741 742 751 756 763 762 748 743 740 745 733 734 730 723 704 692 673 660 638 620 627 625 621 617 608 617 627 636 649 659 673 687 712 720 722 740 735 731 731 753 757 762 781 775 771 770 788 801 820 820 847 867 885 908 929 943 955 990 1005 1019 1042 1041 1035 1030 1034 1029 1023 1014 1011 1003 1003 994
755 758 758 759 755 753 754 764 769 780 817 826 836 836 862 871 879 883 892 887 872 867 859 854 851 864 861 856 847 834 813 798 769 757 748 748 737 730 722 702 697 706 708 695 694 691 671 668 662 657 649 651 651 649 638 629 629 611 612 608 598 574 570 567 562 564 560 551 532 525 513 507 513 507 500 500 492 492 490 502 503 503 512 509 502 488 480 474 465 456 435 421 403 373 361 349 341 326 319 319 315 306 302 298 297 283 276 282 309 340 362 367 373 385 402 414 427 439 429 441 441 457 456 475 491 507 522 545 574 591 612 628 644 639 648 656 667 681 691 702 702 710 710 721 736 754 772 778 787 796 803 793 795 793 793 808 825 833 815 806 805 811 809 809 817 812 804 802 807 808 820 831 829 824 813 801 786 769 752 740 722 706 687 663 663 650 667 659 673 670 657 663 656 645 624 604 583 596 620 643 665 681 691 693 691 665 665 672 669 678 688 697 705 712 718 723 724 730 734 724 729 737 747 749 752 750 737 737 729 731 728 742 749 748 728 727 730 723 725 722 716 699 687 674 660 641 618 614 608 608 606 606 616 629 640 665 676 684 698 722 736 744 764 758 751 749 769 775 780 781 802 798 791 800 799 807 824 851 874 892 916 939 951 972 999 1017 1034 1042 1052 1046 1038 1049 1043 1037 1030 1025 1014 1004 995
763 765 765 772 766 761 761 774 776 786 800 828 848 855 882 889 893 895 899 892 881 880 873 870 866 875 868 860 860 842 827 805 779 767 757 744 739 728 719 702 689 691 695 682 678 675 671 652 649 646 637 641 645 648 638 629 618 600 598 595 587 566 564 562 562 556 554 547 529 526 523 523 525 519 512 510 506 501 500 509 511 512 512 503 491 483 470 465 459 452 427 414 394 384 368 356 347 335 324 318 315 313 307 301 298 288 276 278 302 335 361 359 368 382 382 394 406 417 426 412 427 440 452 472 488 503 517 540 566 576 596 609 629 626 634 651 651 672 683 689 686 691 702 715 729 747 763 766 775 780 787 776 776 776 793 801 819 819 811 801 794 792 786 800 809 805 797 796 801 800 810 823 829 819 810 799 781 766 766 749 731 716 700 674 653 639 648 651 665 651 657 649 644 638 613 596 580 599 617 641 641 658 670 673 673 650 655 663 669 669 680 691 705 710 712 716 719 724 723 715 723 723 733 736 741 744 742 722 716 720 719 733 738 736 719 716 720 713 713 710 705 687 687 680 672 647 636 620 599 595 596 606 629 641 654 685 694 697 707 729 744 759 764 782 782 773 788 788 794 800 819 816 808 819 814 816 827 854 879 898 916 943 961 981 1002 1002 1019 1037 1055 1060 1055 1058 1052 1044 1035 1031 1019 1008 995
770 770 772 780 781 779 774 792 803 812 822 850 863 870 897 904 907 904 901 896 889 892 892 887 884 886 881 871 860 838 819 798 784 772 763 751 740 727 716 692 682 680 683 671 671 665 660 642 637 636 630 634 638 642 628 617 605 586 583 577 570 571 563 558 556 550 546 536 539 536 535 532 531 523 514 515 510 505 505 515 516 516 513 491 480 474 454 454 450 444 426 418 402 376 363 353 345 335 328 322 317 320 312 304 299 287 277 277 276 295 325 336 350 366 380 379 389 399 405 399 415 432 450 470 487 500 511 530 555 540 561 577 595 601 613 632 655 670 678 683 677 685 695 709 720 735 748 755 763 768 771 761 762 758 762 774 795 811 798 790 783 779 771 785 801 797 784 782 791 790 802 814 814 811 814 807 789 776 761 746 725 712 691 665 645 623 634 634 644 634 643 640 637 629 619 604 587 575 593 619 638 649 654 655 655 640 645 652 657 667 679 693 701 705 703 703 700 710 712 706 713 720 730 725 731 732 729 709 704 710 711 724 729 724 711 708 708 699 701 700 695 677 669 661 654 631 626 614 590 590 603 617 644 655 669 702 714 715 715 740 739 750 767 791 801 795 812 810 816 818 839 835 829 842 835 830 833 854 880 880 900 919 943 961 977 999 1019 1038 1057 1066 1063 1067 1060 1053 1042 1038 1025 1011 996
774 776 778 780 791 790 791 826 829 832 837 866 877 888 913 916 916 915 914 904 901 898 901 895 891 889 880 868 856 835 814 798 784 773 763 752 732 720 720 708 692 681 672 661 659 655 650 634 630 630 625 625 628 630 614 602 592 586 577 577 575 585 578 567 556 559 549 543 548 544 542 539 534 528 520 515 516 512 512 520 517 517 511 490 477 469 446 438 434 430 415 406 392 376 360 352 344 337 330 322 319 321 321 313 305 298 285 276 275 286 318 336 336 350 364 355 366 375 386 393 412 429 442 442 463 478 485 501 522 540 544 563 584 603 619 636 657 665 671 675 669 680 690 702 710 710 726 737 745 753 758 753 752 745 752 767 786 802 789 781 775 770 761 776 792 797 784 770 773 775 784 793 803 801 807 803 785 770 753 739 720 707 684 665 635 614 619 612 612 617 621 627 633 630 602 590 572 570 600 621 636 649 638 639 639 633 639 643 652 652 666 679 692 696 697 694 691 696 699 706 711 717 723 714 716 716 714 695 692 700 687 696 710 719 709 705 700 699 687 686 682 656 647 640 634 613 608 599 585 597 614 629 641 659 673 686 722 734 742 764 760 761 774 803 818 818 835 833 835 840 856 854 849 849 860 852 844 856 858 877 899 914 939 960 976 996 1019 1040 1059 1072 1073 1067 1068 1060 1050 1056 1043 1027 1012
782 784 786 789 804 807 814 837 845 850 850 875 887 896 921 923 922 919 914 908 906 905 904 899 894 886 875 864 852 834 812 797 795 782 767 757 746 735 722 710 703 685 668 657 649 646 641 629 627 626 620 617 620 620 608 596 586 581 583 585 587 589 581 573 567 571 562 554 560 553 547 541 545 538 527 527 532 524 519 526 523 512 499 483 465 455 437 428 423 420 403 394 384 369 358 351 351 344 337 329 324 331 319 312 305 299 287 276 276 282 311 328 327 333 344 340 348 348 359 371 388 407 418 434 452 469 470 488 508 525 540 562 585 608 624 639 654 654 660 660 646 658 675 687 691 702 718 732 737 745 750 743 739 732 745 762 779 791 778 771 771 766 753 756 771 785 767 761 767 770 778 785 792 790 798 797 779 762 747 734 715 700 700 679 658 634 606 588 591 595 611 617 623 616 587 569 557 570 599 616 629 638 625 625 627 625 630 636 645 660 674 683 690 690 690 685 677 686 691 702 702 708 711 695 695 697 697 685 682 680 671 680 693 707 700 699 693 688 674 669 664 638 628 620 617 591 591 588 582 593 608 623 650 672 689 704 731 747 760 785 783 778 786 819 832 837 856 856 855 855 876 873 871 867 873 868 861 878 872 877 893 923 941 962 985 1000 1022 1042 1063 1063 1078 1084 1085 1076 1067 1062 1047 1032 1012
791 793 798 803 829 836 834 853 854 859 869 895 906 915 921 931 927 921 914 911 908 907 904 900 894 882 882 871 862 851 835 814 795 784 767 753 750 743 732 721 712 692 671 661 647 635 632 628 623 622 622 615 610 610 589 582 581 582 593 593 592 592 587 584 578 584 574 566 560 575 569 559 568 562 555 544 543 531 526 528 522 511 498 480 456 446 437 421 414 410 405 396 388 379 366 357 350 345 337 329 329 330 318 311 305 301 294 277 276 274 298 298 310 317 326 332 338 344 356 365 383 402 418 423 438 456 459 478 501 520 547 568 590 591 609 624 637 630 634 638 646 650 667 682 685 695 709 723 724 736 740 730 727 721 721 733 756 774 781 770 762 758 745 745 762 774 751 756 763 764 770 777 784 780 787 789 789 770 755 741 724 711 694 677 654 635 609 598 576 580 600 605 608 598 587 543 552 552 571 590 606 621 608 611 619 623 631 641 651 675 686 689 690 682 679 674 666 677 677 684 683 689 693 677 678 677 681 674 671 667 671 663 676 693 688 691 684 679 659 651 651 623 618 608 602 573 577 579 582 613 621 633 659 679 698 715 740 759 777 801 803 803 801 825 832 844 854 874 877 876 898 895 888 881 891 885 883 902 896 893 907 940 956 956 971 1002 1013 1029 1058 1071 1084 1093 1092 1082 1072 1059 1045 1028 1007
798 802 806 818 847 853 855 853 874 877 883 915 923 931 934 937 930 922 914 911 911 909 907 904 899 892 878 868 861 849 836 818 801 790 773 757 747 742 734 724 713 713 699 677 667 653 634 627 621 618 617 608 601 597 583 586 589 591 599 599 596 592 597 597 597 602 599 590 582 591 584 577 582 574 569 559 546 536 530 528 519 511 497 470 470 449 439 422 415 410 402 392 384 375 367 359 351 345 336 332 332 328 319 314 307 312 305 297 284 277 276 289 305 318 326 332 337 342 353 359 374 394 408 409 422 440 461 461 487 508 536 554 574 591 600 614 625 612 614 616 630 644 662 675 677 684 694 709 693 707 723 730 718 712 712 730 753 770 774 758 753 750 735 732 744 753 737 750 760 764 759 764 771 766 769 773 778 760 748 737 719 705 686 669 649 635 620 598 569 567 590 570 585 587 580 536 532 553 568 587 602 610 601 603 613 623 637 648 658 691 694 690 690 680 668 663 644 654 662 668 673 677 677 677 660 664 669 664 662 655 655 648 661 680 664 675 676 671 648 639 630 623 596 589 578 577 584 593 602 635 639 647 667 681 701 701 733 750 771 788 811 823 825 843 844 854 866 890 897 900 917 914 909 900 913 908 908 926 921 920 918 942 953 966 988 1014 1027 1042 1072 1083 1093 1097 1095 1085 1072 1049 1033 1015 1015
816 816 825 839 864 874 875 874 903 899 903 933 939 944 944 945 939 932 923 914 912 910 907 904 897 888 874 865 858 846 835 821 806 791 776 776 758 743 732 727 712 708 699 684 672 659 638 626 620 615 612 600 593 586 592 596 596 598 603 602 601 597 600 602 602 609 609 604 598 604 598 589 583 576 569 558 544 536 536 526 517 513 502 477 455 439 429 416 411 407 399 392 385 376 370 360 352 345 339 339 336 337 332 324 319 320 308 299 288 277 276 281 300 318 329 333 337 342 350 353 366 366 383 395 404 420 450 469 490 515 536 556 573 585 587 599 608 587 588 602 621 639 639 656 659 668 672 680 682 694 707 716 698 696 709 729 751 767 769 749 744 742 728 728 722 728 721 728 747 758 752 759 764 753 755 759 762 746 740 732 715 696 678 661 638 638 626 611 583 561 556 553 562 564 552 522 533 553 566 580 592 600 592 601 613 625 630 644 657 691 698 696 689 674 655 643 631 638 644 657 663 664 661 659 648 655 661 655 655 654 645 629 635 648 652 659 658 655 629 621 614 607 575 567 570 592 605 617 630 656 658 658 675 678 688 709 737 758 778 794 816 833 840 860 862 870 880 906 914 916 935 936 933 926 943 936 930 926 942 938 938 960 965 983 1000 1026 1040 1057 1085 1096 1102 1100 1101 1090 1077 1064 1038 1019 999
816 841 848 852 883 892 899 903 924 924 923 950 948 951 950 944 938 931 923 915 912 909 905 902 892 884 869 861 855 846 838 829 815 797 785 771 758 739 724 715 700 699 693 683 668 654 635 622 617 612 612 609 601 596 592 604 604 604 605 604 602 599 604 605 606 611 614 613 611 609 601 592 592 572 564 556 545 542 536 523 506 497 489 464 444 430 422 413 408 403 399 394 388 388 378 370 360 351 346 344 341 344 338 333 328 327 314 301 288 277 276 277 295 317 330 330 332 335 340 350 363 379 388 409 421 434 450 477 495 517 537 555 567 578 574 581 581 563 568 580 599 613 634 648 659 649 657 669 672 683 691 698 682 688 707 729 750 750 764 760 745 738 732 720 715 716 709 724 743 753 743 751 755 743 744 746 748 736 732 732 726 707 691 674 653 634 619 601 592 561 542 538 545 542 531 525 541 555 566 577 577 584 596 600 607 619 643 658 675 696 697 692 685 669 646 630 631 629 638 651 651 650 650 646 631 638 646 642 646 646 634 618 626 638 652 643 642 635 611 605 599 585 562 562 571 598 612 630 648 673 675 676 675 694 699 714 740 763 782 798 819 838 851 875 875 885 891 921 928 933 935 951 952 949 956 953 951 946 962 960 958 980 988 999 1012 1042 1042 1057 1073 1098 1109 1109 1098 1083 1069 1054 1025 1004 984
838 859 859 863 884 892 906 917 935 942 947 965 962 957 952 941 935 930 923 916 912 908 901 901 894 885 870 861 854 835 828 818 806 786 776 765 757 736 721 707 693 686 680 675 661 653 640 624 620 617 614 613 608 603 602 613 612 608 607 606 604 603 607 608 608 614 614 618 621 617 604 591 581 557 551 548 545 541 536 518 488 482 478 452 438 426 418 419 414 409 404 401 395 389 377 369 357 349 350 352 349 349 346 342 337 334 320 302 291 296 276 276 276 292 316 328 329 331 341 364 379 391 401 426 437 450 458 483 502 520 521 536 547 556 546 552 559 552 564 575 593 609 627 636 645 636 645 659 663 671 677 677 666 673 688 710 731 750 761 758 748 735 727 717 710 705 706 721 736 742 737 745 747 739 736 734 736 727 724 723 716 700 687 673 655 638 623 609 592 562 535 520 523 522 522 522 541 554 563 581 587 592 612 612 617 627 660 675 688 691 692 688 681 666 642 625 625 615 628 637 633 641 640 632 619 630 635 628 637 636 627 606 613 630 640 624 622 622 600 593 587 575 560 574 588 613 629 653 665 687 693 696 697 715 714 724 749 766 766 786 811 825 843 876 894 907 913 946 945 945 948 952 956 957 958 960 962 962 979 979 979 1000 1005 1011 1018 1046 1061 1076 1088 1112 1117 1110 1092 1076 1061 1043 1016 994 975
848 869 875 880 896 904 918 930 948 956 963 965 965 958 950 936 932 932 929 920 915 907 896 892 885 877 859 851 843 835 816 805 795 776 767 761 750 731 731 719 703 687 676 667 649 640 630 624 622 619 616 615 612 608 611 621 616 611 608 607 607 607 608 612 611 611 615 620 625 606 591 579 567 548 547 547 548 542 530 509 485 485 476 466 447 438 427 419 413 409 405 401 394 386 380 369 359 353 354 354 355 349 351 351 347 350 344 327 307 298 279 276 276 290 313 325 327 338 352 364 390 404 414 438 438 448 456 474 490 506 517 524 530 537 523 531 542 552 563 572 588 604 616 624 628 622 630 637 651 655 659 663 665 676 689 710 735 753 760 757 749 737 726 713 704 697 706 706 720 729 726 731 738 739 731 729 729 716 712 708 704 692 683 671 649 634 623 610 603 586 559 535 511 509 510 529 550 565 574 597 606 609 622 629 635 646 674 686 689 691 682 684 683 671 661 640 618 609 620 628 620 630 632 623 609 617 621 628 629 627 618 604 591 597 614 603 603 600 572 568 561 555 580 595 606 613 647 664 679 699 708 715 715 736 736 738 757 763 775 796 823 836 854 876 911 925 936 948 944 944 947 939 948 955 941 950 958 965 971 986 995 1000 1018 1027 1036 1060 1077 1092 1103 1123 1120 1107 1088 1071 1055 1055 1029 1008 987
862 883 890 894 896 922 933 940 957 962 966 966 966 961 954 937 930 927 924 914 907 900 896 883 876 868 844 837 831 824 802 794 794 771 766 760 752 732 723 713 703 682 670 658 641 634 628 625 625 622 619 616 613 614 614 625 626 621 611 611 608 608 619 621 617 615 612 615 616 592 581 568 555 549 549 549 549 550 542 527 509 487 473 457 447 438 426 422 415 411 406 408 403 391 380 376 366 366 368 360 357 358 357 353 351 357 354 338 313 299 279 276 276 288 310 319 331 345 345 361 383 399 414 435 445 452 461 482 492 504 517 508 511 517 514 528 541 553 559 559 569 580 594 609 618 626 633 642 651 650 648 654 670 680 695 716 741 755 760 756 749 749 738 720 708 695 690 701 715 723 718 723 731 733 727 725 723 708 699 695 694 682 682 675 663 641 626 615 591 575 553 531 507 505 513 532 553 568 583 607 617 619 643 647 647 654 666 672 678 681 669 672 672 663 653 635 611 599 606 612 614 623 626 615 597 597 600 604 616 618 612 584 575 577 594 581 580 576 550 548 548 562 601 613 624 631 654 664 680 704 715 725 732 751 754 756 777 783 795 808 838 851 870 895 923 937 947 933 933 933 932 917 920 928 924 937 949 959 963 980 996 1008 1021 1039 1051 1066 1082 1098 1112 1114 1125 1117 1102 1086 1068 1049 1029 1009 987
874 892 901 907 914 932 940 945 960 965 967 968 965 956 947 929 921 918 917 901 895 891 887 872 863 853 838 831 825 817 798 791 782 760 755 749 740 722 714 706 696 674 660 649 637 635 631 628 630 626 624 620 616 615 619 627 629 625 617 617 610 610 629 624 619 614 608 607 604 595 584 572 557 551 551 551 551 548 542 529 516 492 478 460 447 438 430 428 419 413 413 415 416 415 402 395 385 376 373 368 363 360 359 355 356 360 357 346 319 294 281 275 275 276 284 304 322 334 353 366 387 404 420 440 451 459 470 482 487 495 503 488 492 492 498 518 531 542 548 555 565 582 600 612 621 627 634 646 650 641 641 656 678 691 708 708 735 749 757 757 753 748 737 713 701 684 683 695 709 716 706 712 721 728 722 721 721 708 699 693 687 674 670 664 656 630 616 605 577 557 542 526 503 503 514 537 556 556 574 594 614 624 634 651 656 662 651 653 659 664 650 656 660 644 639 627 606 589 593 593 602 603 614 616 596 583 581 600 600 598 594 565 563 563 574 557 557 552 550 551 551 568 610 620 633 645 674 684 694 722 732 740 747 768 770 772 777 807 814 827 856 869 869 889 915 928 935 916 913 909 913 901 907 914 924 924 937 951 955 970 991 1008 1018 1018 1035 1050 1066 1083 1098 1112 1121 1115 1102 1086 1068 1049 1036 1020 1003
877 889 901 914 923 945 951 956 968 970 970 969 960 949 939 929 910 906 905 887 887 885 882 863 855 844 827 820 812 805 784 776 766 760 741 735 728 710 704 698 687 663 663 652 642 639 637 634 631 626 624 620 620 619 622 630 634 636 631 621 620 625 632 632 624 616 608 606 602 595 577 564 556 552 551 551 550 540 537 530 511 492 479 458 457 450 445 437 432 424 417 421 420 418 407 398 389 381 378 371 365 362 366 363 362 360 359 356 343 315 291 280 276 275 283 304 326 339 357 370 390 408 424 440 456 470 478 477 477 476 481 463 469 481 502 518 529 539 539 550 562 582 603 614 623 624 632 641 646 632 631 644 670 690 705 719 736 748 756 757 749 743 731 705 691 670 679 687 698 704 691 692 699 714 714 715 713 708 693 689 682 662 652 649 641 616 604 591 553 544 532 532 520 498 499 515 536 560 578 594 614 633 646 648 651 651 635 637 641 646 635 638 642 642 629 630 627 609 583 575 587 588 600 604 584 567 571 592 574 573 567 565 550 550 550 540 543 544 543 561 578 594 630 641 654 667 692 701 712 722 750 757 762 788 792 795 795 831 835 844 869 875 886 901 913 918 919 916 898 894 894 885 894 901 909 913 927 927 937 950 960 983 998 1013 1033 1050 1066 1082 1097 1110 1116 1112 1102 1089 1072 1055 1044 1029 1029
887 901 916 928 937 955 961 966 975 975 972 968 953 942 942 930 912 900 893 879 877 875 870 847 838 832 816 808 800 791 771 764 759 750 731 722 722 702 697 691 683 666 655 647 646 643 640 635 632 625 621 620 629 625 623 636 645 645 647 637 624 629 644 635 624 612 608 605 599 589 578 565 556 548 543 539 540 531 531 528 514 499 481 469 461 456 452 442 439 430 424 426 423 419 410 402 393 385 389 382 382 376 380 373 370 367 352 347 330 307 290 280 275 275 280 308 330 343 359 373 389 389 409 425 443 460 476 470 468 469 467 449 464 482 502 515 522 530 533 549 563 585 598 598 608 610 619 626 632 623 629 651 680 698 712 723 728 740 749 752 740 732 720 697 697 676 659 662 676 687 676 681 691 706 704 705 701 696 687 687 677 655 639 632 627 608 597 587 580 568 557 542 527 496 495 513 530 557 575 590 617 632 644 641 638 636 624 624 625 629 617 618 620 624 614 623 625 607 585 568 574 572 589 594 575 557 562 573 547 550 549 551 533 536 537 546 549 554 555 587 602 618 650 660 674 682 710 722 729 740 758 767 777 804 810 819 825 854 861 864 880 889 898 906 898 901 901 900 882 879 881 869 874 880 887 890 904 919 927 942 957 973 990 1011 1029 1049 1064 1080 1094 1109 1117 1114 1114 1109 1094 1077 1068 1052 1038
899 927 935 943 949 963 967 971 971 978 976 971 960 945 933 922 904 891 881 866 862 858 852 832 826 822 816 795 786 778 768 761 754 746 730 721 711 691 685 679 674 658 651 648 646 649 646 640 633 625 627 627 645 644 639 642 646 649 649 634 633 641 644 638 630 615 612 607 601 591 580 565 565 556 548 542 537 536 528 523 514 486 475 468 466 460 452 446 442 436 430 430 426 422 422 421 415 405 397 409 401 390 392 381 375 367 345 337 322 303 287 279 275 276 282 282 308 330 347 361 372 388 409 427 444 458 470 459 455 457 452 444 463 481 502 496 506 506 513 529 545 561 570 585 598 600 608 615 619 618 633 659 680 698 711 720 722 732 732 741 734 728 720 700 686 664 647 653 667 673 676 673 685 697 693 692 686 683 678 678 681 665 651 633 620 612 601 587 580 591 578 560 522 491 490 509 531 554 568 594 621 621 633 636 632 629 626 612 612 615 599 601 602 607 593 610 618 603 586 569 563 563 563 576 582 557 546 545 528 528 530 530 534 539 544 562 567 574 579 613 627 639 650 678 678 688 722 732 739 748 777 785 795 814 823 833 843 856 867 873 880 885 891 895 881 881 882 884 863 861 863 855 864 870 877 882 896 911 927 935 950 966 988 1007 1027 1047 1049 1063 1079 1097 1111 1121 1119 1115 1102 1085 1068 1054 1039
922 944 944 948 952 966 968 971 975 976 973 968 953 939 928 916 895 881 869 851 845 843 836 820 820 817 813 790 781 775 757 751 744 737 717 712 701 689 681 673 666 658 654 653 652 659 661 658 646 632 634 643 658 657 650 653 651 649 645 637 641 650 651 651 645 632 637 615 608 601 596 580 569 568 557 548 541 538 531 524 512 502 486 473 470 464 453 447 449 445 440 439 435 431 426 426 420 416 411 417 414 399 392 383 374 360 339 332 319 316 304 285 278 275 277 289 308 324 342 358 369 384 407 427 441 453 459 446 443 442 440 433 444 460 474 474 488 497 511 524 540 556 557 570 584 574 585 597 605 623 637 662 662 674 692 704 702 714 726 733 727 719 711 690 675 654 640 641 656 662 666 664 675 675 677 682 677 673 661 666 669 658 648 635 622 622 615 606 599 593 581 558 509 488 487 487 507 534 556 578 604 624 636 626 621 618 616 596 595 597 580 581 583 585 573 596 596 595 594 583 570 558 554 563 563 535 529 528 519 521 525 530 552 555 557 581 592 599 599 625 637 647 657 687 698 712 741 748 758 767 789 797 806 807 818 829 845 846 856 856 869 863 868 874 864 865 865 864 841 843 846 843 853 860 872 875 885 901 919 940 940 956 977 998 1016 1033 1056 1070 1084 1101 1115 1126 1126 1118 1104 1089 1072 1049 1033
940 942 958 960 963 969 970 971 974 967 966 962 947 935 924 908 890 872 872 858 843 832 826 816 814 810 800 788 776 764 759 745 735 727 721 711 699 689 687 687 677 668 660 658 658 667 665 662 641 640 652 656 670 669 662 653 655 648 642 646 646 652 657 661 654 646 625 614 609 603 601 590 578 568 563 553 545 535 529 524 516 502 502 491 480 472 464 455 451 448 444 439 440 436 431 428 424 421 418 418 412 399 385 385 379 366 339 331 325 316 297 282 277 275 277 295 307 330 344 356 376 389 406 425 437 437 445 448 434 433 431 432 442 452 461 473 489 497 511 522 535 548 541 551 564 574 569 583 594 610 622 637 656 662 679 692 692 709 721 728 724 714 703 690 668 647 629 620 623 640 646 639 654 666 669 670 665 660 646 652 658 658 645 637 628 620 611 604 601 584 573 561 517 501 484 485 511 538 558 578 610 626 632 615 611 607 602 574 575 578 553 559 564 566 548 561 579 595 578 572 566 549 541 542 543 514 513 513 537 542 548 548 570 571 573 574 604 610 615 647 657 668 678 711 724 733 756 765 774 782 788 793 799 799 795 807 819 821 833 843 853 847 855 859 845 846 843 842 827 831 835 843 846 854 854 870 876 885 901 923 944 960 981 1003 1019 1039 1058 1073 1089 1101 1120 1134 1128 1110 1094 1080 1080 1049 1032
959 958 967 968 968 968 968 967 966 957 957 957 954 942 933 918 905 893 875 859 851 836 825 825 816 809 798 796 786 773 759 760 747 747 751 738 723 710 706 689 676 668 666 665 667 672 665 658 641 654 662 668 680 678 678 672 669 658 650 652 655 661 662 653 643 631 625 631 625 614 610 600 589 574 567 557 557 547 535 526 520 504 495 487 480 472 464 457 455 452 448 444 447 441 435 430 425 425 422 419 415 403 391 372 361 352 326 320 320 313 289 280 277 275 281 298 312 337 337 352 363 385 396 408 417 428 434 434 423 421 421 427 434 443 456 480 493 502 511 514 514 524 511 520 537 551 578 588 598 602 614 628 645 653 666 681 692 704 717 724 723 723 712 696 678 662 641 618 609 620 627 633 645 657 669 659 653 647 636 641 647 650 641 641 634 619 610 601 590 568 554 541 517 492 476 488 515 542 561 587 611 623 621 603 603 598 590 561 551 549 553 540 549 549 534 550 565 577 563 562 557 534 525 523 520 512 516 525 534 565 567 568 591 591 593 595 624 631 637 671 682 689 699 734 742 749 756 763 768 772 762 771 778 786 783 797 809 807 819 826 834 833 842 846 827 825 826 825 810 814 820 827 845 855 864 882 888 893 903 927 944 962 980 1003 1022 1042 1063 1078 1094 1107 1115 1129 1135 1120 1102 1084 1066 1037 1017
