ncols        299
nrows        86
xllcorner    460156
yllcorner    4615636
cellsize     30.000000000000
NODATA_value  -9999
172 141 136 127 126 120 107 100 317 1 65 73 265 268 259 115 238 265 262 249 199 160 145 163 152 169 176 178 184 186 185 233 245 238 214 190 173 167 173 192 208 221 226 218 209 213 215 230 228 220 232 238 237 247 245 225 140 136 150 163 166 162 157 159 155 148 148 144 150 178 199 192 184 175 165 160 160 181 178 180 213 219 229 221 196 176 165 150 150 143 134 130 132 131 297 298 302 307 309 329 310 288 287 281 283 279 279 264 277 277 292 332 26 24 357 359 22 47 43 28 355 306 308 356 39 35 328 305 315 344 14 14 18 350 307 312 330 327 307 308 307 305 313 319 319 316 325 340 31 53 49 46 46 28 5 350 352 0 6 15 22 30 38 45 47 33 18 8 354 352 0 20 1 347 347 12 30 35 41 45 45 41 55 56 51 50 43 59 69 65 49 42 45 47 278 278 257 269 272 274 275 273 285 333 354 18 7 347 350 4 19 29 37 41 30 351 351 350 15 355 298 284 288 286 291 314 70 83 78 37 6 19 39 22 300 284 281 279 279 279 290 288 287 321 72 94 103 88 94 99 94 47 46 38 16 330 320 28 118 118 115 108 112 125 129 121 121 114 94 339 338 342 354 19 70 103 90 59 43 59 58 58 56 108 100 94 83 59 60 65 74 82 88 90 74 61 49 5 3
225 212 170 128 113 107 107 318 311 1 81 86 268 268 249 112 257 265 265 258 221 176 151 142 143 155 169 178 180 201 218 243 248 237 211 186 171 163 167 167 187 210 226 227 221 213 212 221 219 227 243 250 250 254 252 220 130 128 143 160 150 159 160 160 166 164 152 156 163 183 194 173 172 170 159 157 169 188 174 171 192 219 213 227 219 197 171 156 148 143 138 133 130 309 303 300 302 310 322 329 335 305 283 288 264 257 259 293 286 284 304 321 6 14 358 6 37 47 57 50 27 326 309 340 28 18 31 348 306 295 319 4 15 354 315 312 335 338 314 306 309 309 316 314 317 321 325 339 0 25 36 42 41 28 3 348 351 0 7 14 23 37 47 52 41 25 13 1 359 345 347 7 19 357 357 28 39 40 39 29 34 42 64 55 41 35 37 60 70 70 57 39 39 50 54 11 271 279 280 279 279 271 273 296 320 13 5 347 346 2 2 15 29 38 37 10 347 356 23 16 322 298 307 300 297 314 82 88 78 7 3 25 25 49 34 309 295 289 285 287 289 293 298 321 86 88 87 60 59 56 45 33 37 37 42 22 344 341 118 119 115 108 108 113 117 109 106 84 358 335 340 347 87 118 117 117 88 64 55 54 91 100 112 112 100 84 67 59 63 67 83 88 88 83 67 65 65 41 351
238 234 195 136 123 113 115 292 307 37 94 91 91 274 266 226 143 252 258 247 208 167 145 138 141 147 158 166 183 217 235 242 239 239 225 201 182 169 161 171 191 213 225 225 221 214 206 210 216 243 254 258 256 258 258 257 164 120 123 134 145 150 151 158 165 171 161 171 193 203 185 95 131 160 106 142 142 169 174 166 161 174 213 229 222 194 160 148 147 142 138 133 309 306 304 301 305 305 307 319 333 346 331 331 299 295 297 322 316 309 306 314 352 8 9 21 53 62 65 65 55 35 343 308 322 5 32 3 316 273 280 332 359 350 317 315 337 347 315 299 299 302 306 308 310 315 325 345 6 24 35 43 41 26 3 349 351 359 9 17 27 31 46 60 57 27 15 11 0 345 348 22 9 353 9 37 37 31 27 35 47 60 62 62 37 21 17 37 59 67 53 36 41 55 60 37 289 283 286 286 270 266 270 281 279 297 0 358 336 344 356 6 26 36 33 4 346 0 28 24 335 314 317 313 304 334 30 87 86 7 358 9 29 55 43 317 300 293 286 286 278 281 284 300 120 91 71 73 51 47 41 40 38 42 47 33 28 104 120 120 119 112 113 111 109 96 76 9 336 333 335 344 102 118 117 108 76 77 79 83 105 108 116 86 77 65 56 63 71 78 90 85 78 74 65 72 67 8 349
246 243 195 132 120 115 115 253 287 300 97 101 104 276 263 205 180 244 245 235 208 163 142 138 138 141 151 151 165 188 223 248 245 236 221 196 169 160 161 173 193 214 222 214 212 211 209 210 210 251 261 261 259 257 261 263 164 121 125 134 150 148 140 147 152 170 167 244 286 311 311 4 36 48 59 69 114 160 164 158 156 172 221 233 222 180 152 146 146 141 135 135 126 310 307 306 309 307 304 310 326 350 359 351 319 315 321 318 313 313 306 304 334 334 353 20 40 63 66 58 48 30 1 315 311 358 26 18 316 302 289 311 343 346 346 317 312 335 357 334 299 293 299 299 299 307 325 338 3 24 44 48 37 21 9 9 350 348 358 7 17 39 56 65 57 8 2 3 357 353 6 32 2 351 20 30 28 28 23 40 56 66 70 45 18 8 14 41 58 63 52 38 45 60 65 45 294 285 285 282 276 263 266 273 280 286 330 340 331 349 352 357 20 36 33 0 350 6 28 29 29 337 316 320 319 315 64 82 59 352 359 19 40 67 46 320 300 286 280 278 270 270 265 250 167 145 121 137 72 54 46 61 53 51 47 91 111 120 122 120 122 118 115 115 110 83 76 24 342 337 351 45 102 98 86 77 90 104 105 107 103 93 90 69 69 66 60 63 73 83 90 77 69 64 70 66 36 348 352
64 250 245 225 147 120 118 290 291 321 93 101 248 276 255 197 207 222 225 221 203 205 164 140 131 131 138 148 59 0 241 248 250 237 221 181 154 148 156 167 197 219 236 217 204 203 213 221 228 251 274 266 261 258 259 256 139 121 127 139 151 146 131 130 119 135 170 184 307 317 335 355 23 40 51 59 77 129 117 141 150 177 230 234 214 214 163 151 148 147 146 137 0 316 312 310 313 308 304 308 319 349 10 351 314 307 318 305 308 306 306 297 296 314 337 24 48 62 58 47 38 30 12 342 326 2 25 24 24 354 340 325 340 345 342 317 310 333 2 334 318 300 297 297 292 298 316 328 356 356 45 58 52 34 24 17 358 348 0 4 17 47 63 62 37 2 0 355 348 359 23 23 37 8 356 20 18 22 29 60 68 70 64 32 13 3 7 37 54 60 56 43 43 51 66 71 49 306 294 286 272 284 275 278 279 279 299 316 315 348 350 349 15 31 31 18 2 359 13 38 29 335 312 316 318 330 67 67 24 349 3 36 59 77 39 39 319 304 284 276 282 272 258 223 146 149 161 176 158 123 83 116 103 97 90 127 127 126 126 124 121 125 96 84 80 74 50 349 334 355 50 83 97 73 68 77 92 101 101 108 100 93 83 71 66 66 64 77 86 87 84 66 68 68 75 58 12 341 354
64 0 241 222 171 130 310 302 304 41 90 94 283 275 228 228 193 182 198 212 216 214 165 136 120 122 130 136 22 55 272 259 248 239 217 165 165 146 138 124 16 341 12 207 196 202 234 248 262 276 269 264 263 259 257 242 137 115 115 121 127 146 145 128 119 126 202 278 308 317 330 347 22 41 52 54 56 68 60 60 87 118 105 229 222 189 156 149 147 147 160 315 322 320 315 313 317 314 307 305 310 310 343 12 4 314 295 293 305 308 308 300 295 306 330 28 53 60 57 43 31 24 20 14 0 5 10 17 9 346 345 344 349 357 348 317 300 314 352 345 328 317 306 317 309 300 298 310 322 355 52 58 45 29 27 25 12 358 4 7 19 51 60 43 13 0 5 9 6 345 0 32 41 13 2 11 11 27 47 68 66 66 56 23 11 1 359 356 27 55 72 63 47 51 73 76 29 309 304 307 304 317 292 282 275 276 287 296 286 290 323 337 325 7 23 13 7 9 22 37 25 334 304 306 313 354 60 49 7 7 354 17 61 80 67 17 324 320 305 291 308 291 267 193 128 139 170 176 169 162 162 162 145 134 130 136 129 124 123 124 120 114 48 57 68 74 24 338 333 47 81 84 84 58 55 66 87 85 85 94 77 75 76 71 66 66 68 76 82 79 70 59 66 66 72 64 21 346 343
62 65 233 215 177 145 310 315 328 328 72 87 90 266 232 206 184 174 188 209 221 230 173 127 120 113 120 317 46 75 75 259 238 240 234 191 164 145 134 334 344 10 12 30 45 192 269 271 274 275 254 263 263 268 262 258 236 119 106 110 127 143 148 136 125 123 278 293 304 310 319 334 23 23 43 54 51 49 50 51 55 67 83 199 191 168 151 146 143 0 327 325 323 321 321 317 316 320 322 316 314 312 338 8 10 323 290 283 292 303 309 307 305 309 330 46 46 65 74 60 42 29 14 13 10 18 9 1 352 340 344 346 349 0 358 323 310 310 294 316 299 309 317 318 318 308 303 300 310 356 52 46 33 26 41 41 29 8 9 9 12 29 47 38 10 355 10 18 6 353 10 46 28 11 5 6 20 48 66 75 75 64 59 41 20 7 359 349 39 70 81 69 51 57 77 72 350 309 306 309 319 327 327 312 287 283 278 285 280 274 280 299 291 340 12 4 7 13 26 39 31 339 304 306 302 312 22 54 36 4 14 50 79 60 43 12 334 326 327 321 308 324 292 144 140 128 127 156 163 169 167 160 149 142 140 142 131 123 123 107 73 45 53 75 84 75 70 5 336 14 65 74 64 52 60 79 87 83 79 81 75 75 75 70 62 65 69 71 68 64 62 56 58 66 72 15 351 341 347
54 56 54 44 27 354 339 326 325 0 79 84 86 223 221 195 179 63 132 221 236 245 199 122 122 107 105 280 296 39 66 0 240 224 214 190 171 151 135 327 344 11 24 37 51 67 72 276 270 264 248 256 269 272 268 264 238 112 104 105 122 141 149 140 134 0 290 290 290 294 295 283 300 34 53 62 56 52 52 55 53 65 90 148 166 158 146 144 144 322 330 332 328 324 320 316 316 313 320 323 319 323 344 9 16 348 292 288 287 295 295 300 304 308 307 301 84 81 69 54 39 24 5 10 19 16 3 352 343 340 345 345 344 349 357 3 359 347 327 304 318 306 308 306 314 309 299 278 285 333 46 43 36 36 46 52 54 42 14 13 17 26 19 4 351 2 24 29 11 8 34 46 14 9 9 12 69 92 94 94 77 62 54 43 21 2 354 0 96 91 84 70 55 61 75 60 60 314 307 305 306 300 312 320 304 301 283 281 299 291 284 279 289 313 352 353 359 359 11 34 46 42 352 315 305 314 20 42 25 10 38 62 69 45 38 21 338 323 323 331 338 357 24 118 144 139 128 139 153 168 164 153 149 148 148 142 132 123 118 35 35 16 70 92 99 96 48 354 347 42 66 65 49 86 94 97 93 70 74 77 79 79 77 70 56 63 69 64 58 56 57 53 61 61 41 355 347 343 352
45 42 47 33 20 356 337 329 341 39 73 74 68 66 22 0 0 63 16 48 0 258 255 226 120 107 102 286 305 15 47 47 40 184 203 190 135 0 325 336 336 348 10 33 48 64 79 270 265 258 255 266 272 272 274 272 236 110 110 112 124 125 140 146 143 161 282 289 280 284 283 283 241 153 81 112 86 71 62 79 72 78 103 106 131 153 148 146 148 322 331 333 332 324 318 317 313 305 306 315 312 326 353 15 17 21 11 317 299 288 292 301 303 304 301 0 86 80 46 43 34 14 356 9 21 21 7 2 351 338 340 344 343 347 352 359 356 357 354 341 341 322 307 306 299 298 283 267 264 269 287 4 40 44 50 56 54 34 14 19 23 26 354 351 351 21 37 31 31 9 19 40 34 13 23 46 84 96 103 94 66 59 54 45 23 3 357 109 110 110 98 85 70 57 68 75 46 314 291 297 300 278 284 299 312 300 299 298 297 302 304 304 291 291 303 335 347 353 7 37 50 43 2 322 310 321 12 31 22 21 48 58 58 55 52 45 22 332 324 331 343 56 105 128 142 144 137 135 145 158 156 153 141 144 144 109 112 105 93 29 18 26 111 110 107 98 13 351 7 42 79 74 74 100 99 99 89 60 64 72 58 55 54 54 59 62 66 64 52 57 56 46 50 27 0 344 344 344 344
34 28 33 24 16 357 337 340 5 51 65 60 60 50 35 23 8 357 44 73 84 263 262 237 117 117 109 290 310 4 39 43 34 26 26 18 15 7 354 350 349 354 12 58 67 75 90 256 263 259 266 273 275 274 280 280 281 98 105 111 116 121 134 139 144 243 276 278 266 269 268 262 210 183 158 161 161 143 123 146 128 114 129 125 132 142 146 167 317 328 333 333 332 325 319 320 315 323 323 311 311 305 318 355 16 24 20 347 310 292 295 304 304 302 300 0 67 57 34 34 40 31 2 354 7 12 358 357 348 331 333 336 339 332 343 351 349 357 356 351 346 346 338 318 309 293 281 274 272 275 286 329 28 47 50 53 48 25 17 23 20 5 348 347 354 30 36 30 22 22 34 48 37 29 55 76 72 67 72 73 66 68 63 69 42 28 23 94 113 108 96 85 73 64 75 75 40 297 283 274 276 261 264 270 285 262 272 282 251 260 271 283 278 285 294 320 344 356 5 33 46 40 6 328 318 329 332 4 26 28 45 54 61 60 55 37 2 333 329 333 352 120 123 130 117 132 138 136 105 121 138 142 88 94 100 41 43 45 40 53 70 100 120 112 101 77 8 9 48 48 95 91 80 74 77 73 66 67 69 65 43 45 48 53 59 57 59 55 51 49 49 38 33 22 1 339 338 340 351
26 22 23 17 11 358 358 352 351 24 57 66 57 45 41 31 19 12 77 86 90 261 255 194 129 130 302 302 298 314 358 36 36 32 26 22 14 5 357 358 358 5 32 97 90 86 90 252 261 261 265 271 276 277 285 286 286 97 101 106 111 108 119 126 144 251 259 263 258 253 253 247 210 196 185 177 170 164 157 161 151 141 129 136 138 142 0 318 323 332 336 333 333 333 327 321 325 337 339 327 311 304 309 346 10 23 27 9 326 300 299 304 301 301 297 232 0 50 34 33 40 26 2 352 4 1 329 330 331 284 291 302 318 302 321 321 338 321 344 346 329 338 344 337 333 307 286 291 285 285 295 316 16 46 50 53 53 47 33 16 15 3 335 347 10 43 39 23 25 42 47 50 37 38 58 72 51 51 49 57 70 73 77 36 27 34 57 95 107 105 96 87 77 71 75 60 14 316 310 310 266 268 255 256 259 252 251 249 251 260 258 267 289 290 293 309 335 355 7 26 26 39 36 4 331 321 332 357 26 37 53 57 63 64 39 8 345 336 333 340 103 115 115 110 105 67 82 94 50 53 63 77 40 41 42 43 47 52 51 117 124 124 120 120 108 87 29 18 42 75 71 56 64 84 79 70 64 82 71 54 43 56 63 63 60 47 45 51 49 45 38 29 11 0 349 333 335 340 351
24 23 22 19 9 6 0 8 16 48 67 70 64 52 57 56 54 53 87 86 86 86 247 225 175 160 335 318 309 319 352 27 36 32 26 22 16 7 1 358 32 74 98 118 111 97 92 88 270 266 268 273 277 281 282 282 282 97 99 98 100 94 104 113 113 153 248 254 261 252 236 223 194 190 184 177 173 171 168 162 154 148 140 136 141 145 315 320 321 326 335 337 335 333 326 324 328 323 335 329 314 290 296 327 355 21 29 29 14 342 311 303 304 286 262 221 228 0 0 0 42 26 0 248 309 332 251 267 275 275 237 251 264 257 257 266 288 253 286 315 288 309 332 346 351 342 311 291 283 280 280 288 316 6 39 54 58 50 32 14 359 340 327 352 27 43 46 31 38 53 51 51 50 51 43 59 57 42 46 61 68 63 52 36 33 46 72 85 95 98 94 88 78 78 73 60 14 356 4 358 319 268 276 261 255 265 264 262 262 288 290 290 299 293 293 290 290 321 346 4 20 32 29 9 337 324 330 355 34 48 56 57 60 57 24 356 356 341 348 4 86 70 58 48 52 59 56 50 41 36 38 40 40 37 41 94 105 105 109 133 134 135 129 118 98 67 12 28 55 71 71 65 81 106 97 90 85 81 81 66 52 57 70 72 37 28 33 46 47 40 35 15 357 348 337 326 334 351 29
22 25 24 16 5 4 5 20 35 55 68 71 68 61 62 62 63 68 74 78 76 72 65 188 170 330 327 324 317 327 348 23 44 33 24 22 27 27 20 15 90 111 119 119 113 102 92 90 272 270 268 272 274 277 272 269 255 103 116 98 92 87 88 93 99 0 258 261 260 244 216 200 184 185 183 177 176 173 169 148 148 144 144 128 132 145 315 316 318 325 322 328 331 330 308 309 312 257 275 293 293 262 271 280 281 323 13 23 7 346 322 311 294 226 215 219 214 204 221 231 0 135 156 173 206 223 205 209 224 230 253 260 259 237 234 237 242 243 252 268 259 273 296 334 291 344 5 336 311 279 275 292 315 2 38 55 56 48 29 11 341 323 330 11 46 46 66 59 48 57 58 55 57 48 46 61 56 52 60 68 59 46 30 27 48 58 72 76 80 87 93 84 83 76 61 9 345 349 1 4 0 331 334 287 270 288 287 287 287 296 302 305 296 292 285 283 288 311 337 359 17 31 29 19 346 322 324 356 47 54 61 59 59 57 37 16 356 346 10 52 74 45 42 49 57 101 80 58 90 65 58 58 98 86 78 83 124 127 132 138 139 139 131 112 94 45 0 55 78 81 128 132 132 119 124 106 95 81 73 63 54 59 59 49 24 26 35 47 43 37 33 15 352 344 344 331 328 339 24
27 29 25 13 6 7 11 32 49 49 61 68 68 68 64 62 63 68 62 60 59 58 46 35 4 330 324 325 324 334 351 351 31 70 62 40 84 79 71 71 121 129 126 113 107 98 91 90 268 267 268 272 272 272 266 256 245 213 138 103 91 86 84 87 90 94 262 263 260 212 192 186 181 183 183 184 185 181 174 137 120 122 128 116 117 308 315 303 305 313 270 282 295 304 249 249 248 229 233 235 248 260 266 271 281 305 353 10 357 340 325 320 162 193 213 217 217 221 232 222 193 167 156 162 203 213 194 200 220 239 262 256 245 223 225 231 236 247 247 246 250 254 259 267 274 313 6 3 357 306 287 293 304 0 45 40 42 39 29 26 0 333 321 341 34 59 69 60 53 49 50 46 51 39 43 55 56 62 68 67 54 54 38 29 56 68 74 95 88 84 83 68 75 78 61 327 337 351 358 2 7 4 7 1 331 319 292 290 293 287 292 296 296 283 280 280 291 308 332 355 18 37 35 27 27 358 324 313 8 65 61 57 55 51 31 14 1 358 71 81 63 118 116 114 113 137 142 138 123 156 138 114 135 140 137 126 136 134 137 139 139 135 125 87 70 8 8 0 96 104 127 140 142 136 115 94 88 77 68 57 52 39 29 24 24 33 41 47 45 38 33 26 5 349 341 335 339 3 50
32 26 19 19 9 8 12 32 51 66 71 67 66 65 63 58 58 61 53 50 49 50 35 19 352 346 332 328 328 335 347 12 52 84 84 82 115 114 112 115 123 128 121 107 99 94 94 92 90 270 269 271 271 270 257 241 225 201 169 121 95 90 83 85 90 108 245 248 248 212 191 182 180 183 187 189 197 195 178 128 111 111 117 114 0 303 303 268 261 261 228 228 230 238 230 228 225 245 246 246 252 268 270 273 280 308 340 357 338 324 324 318 161 164 192 228 241 253 250 189 191 177 149 153 194 204 189 210 243 259 244 236 236 224 225 231 239 255 251 246 248 259 260 263 273 289 342 10 13 349 308 314 307 307 354 19 30 41 42 14 346 327 325 357 54 69 57 45 43 42 39 32 36 41 46 46 53 51 55 61 56 46 39 41 73 86 94 102 94 79 67 58 67 74 355 312 312 330 341 357 2 6 5 10 359 350 295 282 284 272 276 281 285 281 284 284 285 285 293 316 318 20 40 36 28 8 335 212 169 109 71 56 51 46 42 19 12 33 129 129 130 157 153 143 136 135 143 158 161 164 151 139 145 151 149 141 139 137 137 127 127 124 115 85 73 50 6 115 111 113 115 117 120 126 49 67 78 67 59 55 47 8 8 8 15 31 40 45 37 35 29 21 4 347 337 340 357 28 48
36 32 20 13 11 8 16 32 64 69 71 66 65 62 60 55 53 53 45 45 43 40 26 19 4 346 339 336 334 345 0 43 74 95 95 105 114 116 117 119 115 118 121 116 105 101 99 96 96 265 272 272 271 267 247 227 209 196 184 153 110 90 99 86 87 90 106 205 225 192 182 179 184 192 199 199 206 207 189 128 123 118 119 122 118 282 283 245 236 230 225 225 225 227 245 243 241 245 270 270 270 281 281 284 284 294 308 336 340 286 228 186 169 178 206 228 263 255 212 182 196 189 155 159 185 195 187 196 234 255 242 233 229 224 232 242 252 251 249 251 255 259 262 268 266 273 304 304 325 7 7 347 351 331 352 17 37 53 49 355 339 329 338 27 69 70 40 35 37 37 40 37 31 45 49 49 49 45 50 56 49 43 48 55 79 88 95 102 76 58 58 45 54 54 46 325 301 316 321 353 4 4 7 13 13 350 315 279 272 268 263 263 266 265 274 282 268 268 266 276 277 5 37 36 39 32 8 166 181 170 112 158 95 95 131 117 128 132 145 151 156 157 155 142 135 135 145 166 171 168 154 146 147 150 150 148 138 134 130 129 99 90 88 93 88 76 0 131 120 115 100 94 81 60 57 72 72 75 67 73 63 351 340 354 16 30 36 38 35 36 29 17 358 349 339 340 13 13 37
36 42 27 17 140 0 22 52 77 68 67 63 61 61 58 51 50 47 45 39 35 30 12 4 355 346 346 343 342 12 61 93 95 104 104 105 109 107 112 114 108 109 109 110 101 101 99 97 94 276 274 276 272 264 247 237 215 202 192 188 175 136 125 98 91 96 117 166 195 171 170 176 184 203 205 204 188 188 194 188 173 149 129 127 120 262 256 234 230 227 225 233 237 242 266 266 269 270 282 285 287 292 286 288 291 293 305 334 340 170 178 176 176 198 230 253 244 209 180 178 178 195 197 172 170 184 187 215 246 252 231 227 230 228 243 247 251 268 260 257 257 279 270 268 267 268 268 281 297 338 1 6 11 352 352 25 45 52 36 348 333 332 338 3 48 66 39 26 30 35 43 45 41 52 56 51 46 43 52 55 49 49 56 62 59 72 78 80 63 52 39 38 40 42 35 327 289 296 291 331 2 6 8 12 17 17 26 347 297 307 290 269 262 272 267 267 266 262 259 261 261 279 43 38 77 89 128 126 161 187 190 188 178 157 149 140 149 149 145 159 161 159 149 135 134 142 154 173 173 177 167 153 145 146 145 142 128 119 111 107 87 86 90 93 95 106 131 119 109 104 93 95 84 59 59 70 74 71 77 82 39 336 327 345 16 20 25 30 45 41 29 29 1 352 351 346 0 22 42
46 106 108 125 180 188 196 196 185 128 76 74 60 55 52 48 45 41 39 29 22 18 6 0 354 349 353 349 349 48 100 123 118 110 106 106 105 103 108 109 99 96 95 97 98 100 100 97 90 90 283 279 278 273 262 231 208 198 187 187 184 168 161 123 100 110 136 162 171 172 171 171 179 195 199 196 177 183 188 184 185 172 144 131 0 246 240 236 234 233 231 251 251 259 264 266 270 276 294 296 294 300 289 287 290 282 273 186 166 167 172 172 186 223 223 244 240 222 184 170 175 192 196 174 176 184 191 242 254 245 229 235 242 242 289 289 288 321 318 308 295 319 300 288 277 294 284 282 296 306 335 7 14 4 357 36 49 49 46 27 348 326 332 24 51 56 30 24 36 40 55 56 52 59 57 50 42 40 40 52 55 57 60 60 46 58 64 64 56 43 32 17 25 38 40 343 280 278 291 275 294 343 351 4 11 20 34 1 318 326 326 310 285 300 281 271 266 275 266 261 244 244 220 178 172 126 114 116 138 184 191 187 178 163 149 130 136 137 134 155 161 161 169 154 143 144 148 165 176 173 161 148 145 140 138 133 114 103 96 93 88 91 92 93 93 98 111 112 99 92 93 87 64 49 51 59 59 65 63 42 355 332 329 340 8 358 13 25 39 51 38 24 352 349 352 352 11 36 51
112 153 154 155 171 181 189 196 196 185 120 74 62 52 49 45 41 37 34 21 17 12 14 7 2 358 0 0 358 48 117 123 118 107 103 102 102 102 105 102 93 90 90 90 94 102 106 105 94 93 275 280 281 276 260 215 193 187 181 184 185 183 178 159 122 122 135 147 163 163 174 177 181 185 187 183 171 187 182 178 18 145 140 131 0 0 0 233 236 239 240 256 260 262 256 262 272 284 288 295 301 300 300 289 285 251 209 162 162 153 171 175 183 208 237 243 230 209 174 170 175 191 190 171 175 187 209 262 254 254 237 260 277 284 312 316 319 321 334 332 330 332 321 313 306 313 304 296 286 278 278 282 260 334 3 3 51 60 48 23 352 334 348 37 49 46 39 51 66 57 79 75 75 65 66 58 43 27 38 51 56 62 57 48 36 49 56 59 51 38 20 17 19 19 37 53 12 281 273 278 280 311 328 356 11 25 37 2 326 326 339 339 324 325 311 311 300 298 278 262 240 234 218 200 171 130 120 116 109 147 180 184 182 151 132 120 120 121 113 121 144 165 170 160 152 144 145 169 176 168 155 144 141 129 126 122 85 85 85 88 88 93 94 93 94 100 109 69 72 83 90 33 30 38 45 52 50 58 46 46 21 348 327 337 344 356 18 45 59 38 28 16 349 346 349 354 25 48 56
153 161 164 165 175 180 186 194 198 199 184 108 105 53 48 41 41 37 33 28 22 19 19 13 11 7 30 49 100 115 115 117 112 108 106 104 102 102 101 100 94 91 88 88 101 107 107 102 94 94 276 281 278 272 247 193 180 179 175 175 177 178 176 186 183 155 158 149 154 130 160 173 176 171 178 178 2 5 15 19 20 34 47 56 45 39 0 0 236 246 252 265 261 255 262 265 273 281 274 290 312 317 327 309 291 238 220 195 154 146 168 180 211 233 239 236 220 201 172 168 175 188 182 182 175 175 214 265 255 238 270 287 298 307 313 319 323 329 334 335 335 331 327 323 323 317 314 309 246 243 244 247 245 249 299 358 59 62 46 11 351 345 4 48 48 43 46 56 79 92 101 103 96 83 57 45 30 27 39 55 62 52 37 27 36 48 55 55 54 46 34 12 2 21 41 53 22 295 282 292 289 296 305 339 12 31 38 357 328 328 327 337 347 339 327 319 311 279 258 246 244 242 233 223 143 125 126 115 116 128 128 157 189 191 146 132 124 117 115 116 131 160 158 155 149 141 135 155 171 149 144 144 139 124 118 108 49 58 75 83 89 94 93 92 82 80 78 19 38 55 50 24 34 34 51 45 52 50 42 34 20 337 325 340 347 5 45 63 59 22 17 9 352 346 346 345 358 39 60
160 165 169 171 175 174 182 192 198 201 201 200 202 200 150 199 49 45 39 57 37 26 19 26 31 31 90 95 109 113 117 117 116 115 111 108 105 102 101 98 94 91 90 93 102 108 109 102 102 95 281 276 271 271 259 198 180 173 173 170 168 169 175 189 193 181 186 163 135 132 144 156 167 351 351 356 354 13 17 16 49 59 59 56 57 49 57 0 236 253 261 272 269 263 262 278 278 271 278 281 294 317 321 295 267 211 212 194 153 141 157 185 211 239 229 225 211 211 199 179 169 170 184 193 198 217 262 248 243 247 270 292 298 306 308 315 320 327 319 329 334 326 324 322 321 298 291 272 246 224 231 239 242 242 254 295 47 55 39 7 7 352 357 39 51 48 46 62 77 87 82 93 91 78 25 21 22 34 49 62 62 47 37 24 22 47 58 61 56 47 38 10 3 26 45 47 21 308 293 296 296 295 305 296 316 9 35 39 351 322 310 320 339 317 312 304 295 256 245 242 244 244 242 245 244 136 128 136 138 133 139 158 189 188 155 140 132 123 115 114 117 138 106 114 121 121 78 92 111 66 96 115 123 76 69 60 49 47 68 80 80 85 90 87 40 32 25 11 14 31 36 30 39 51 51 55 59 50 17 16 10 336 333 343 349 26 56 56 56 25 11 9 6 357 345 341 5 71 86
160 167 180 178 178 172 172 180 187 195 200 201 205 209 211 206 181 127 87 163 155 0 34 173 116 116 168 153 129 117 130 128 123 124 116 110 106 104 101 98 94 91 91 96 103 109 112 112 111 108 246 273 266 260 237 185 175 170 170 164 161 164 173 190 197 197 205 197 197 180 164 160 156 346 356 7 9 36 32 34 73 86 85 75 62 64 66 74 0 261 261 274 276 278 281 294 299 292 306 290 292 310 277 231 215 211 211 194 158 151 156 156 199 243 233 217 206 203 200 192 181 176 190 0 242 240 246 247 261 277 286 291 291 295 295 301 306 311 306 321 327 297 301 305 303 239 220 203 209 227 233 238 246 246 246 254 278 5 38 26 13 1 14 37 46 46 48 51 61 67 57 60 56 43 13 13 10 25 43 54 54 28 30 24 29 61 71 69 45 46 41 10 9 21 36 40 23 23 312 292 289 291 295 294 305 351 25 37 354 312 291 294 309 296 288 277 269 257 257 253 251 256 250 253 240 121 121 140 142 140 144 155 172 174 157 143 138 127 118 115 108 102 74 59 60 68 53 53 54 61 72 77 78 31 29 27 26 58 71 77 68 68 66 66 20 14 13 17 17 31 33 56 69 71 63 65 55 34 358 0 2 345 354 346 354 26 42 49 42 16 11 11 9 7 332 325 171 120 104
141 142 169 186 180 174 171 177 184 193 198 201 209 213 213 206 187 176 168 184 187 189 191 195 190 180 189 181 163 140 146 145 136 124 125 119 113 110 101 96 93 91 90 92 102 105 107 108 106 106 270 273 259 243 210 181 174 170 167 162 160 162 0 17 15 208 15 209 200 180 0 346 344 351 12 36 45 55 49 50 74 81 81 81 66 69 73 74 90 0 273 278 278 286 291 296 305 321 323 298 290 293 184 182 196 196 211 204 192 176 168 173 217 245 231 210 195 192 195 194 200 222 253 0 0 214 214 237 267 280 286 289 288 290 293 294 296 297 285 297 299 297 255 256 250 207 199 198 198 226 241 245 257 254 254 262 280 329 20 26 20 16 21 28 33 32 38 45 54 54 48 45 41 33 19 14 13 25 44 38 26 26 35 35 44 65 70 60 30 40 33 33 4 12 18 27 36 29 318 299 295 293 293 289 296 327 13 39 8 308 291 287 287 293 283 272 265 260 267 272 266 271 270 269 202 112 112 131 126 135 144 155 152 152 157 137 140 140 127 107 101 91 51 38 42 50 54 52 52 61 58 46 38 21 25 25 29 66 79 79 60 53 43 31 12 13 16 17 12 27 45 74 80 80 74 35 35 22 0 357 356 0 2 5 14 26 58 38 27 32 36 38 32 172 203 209 180 149 149
127 139 169 184 181 177 173 175 184 191 198 204 216 216 216 210 193 185 183 190 193 193 195 198 196 192 189 188 175 157 160 162 150 135 142 142 129 140 124 107 95 93 90 95 102 105 106 109 103 98 281 276 250 224 196 175 175 170 166 162 160 155 0 3 14 17 28 29 21 0 351 348 347 4 42 62 65 67 59 54 59 64 64 66 63 68 73 82 93 0 284 279 286 296 302 303 303 324 323 318 304 293 166 165 174 195 204 195 187 178 179 197 235 240 221 199 195 183 183 190 200 237 257 266 186 178 191 274 286 290 290 296 292 291 293 287 283 281 256 236 229 245 230 233 222 205 202 200 208 244 253 257 257 264 264 269 274 297 2 24 17 17 18 11 19 25 28 41 45 48 48 43 33 23 20 22 27 34 25 14 11 34 42 43 51 57 66 63 41 26 40 24 0 13 20 27 35 33 336 306 304 301 294 296 297 312 312 4 40 24 354 306 290 287 275 264 259 272 281 286 279 278 277 275 202 106 107 107 103 107 119 135 135 129 135 116 122 128 117 102 93 75 51 31 42 51 63 62 61 61 62 43 23 15 28 43 55 72 75 69 52 42 24 14 14 27 33 31 6 29 29 88 83 78 74 29 8 5 358 358 353 357 20 45 64 72 0 0 30 166 160 150 150 173 178 183 187 188 174
124 133 162 176 179 174 176 176 176 184 192 199 211 220 217 205 185 179 183 192 196 195 196 205 205 201 195 194 181 181 170 167 174 165 177 164 144 162 143 117 102 103 98 101 105 104 105 110 103 100 100 279 266 235 206 171 167 162 161 171 336 342 349 358 10 21 25 22 11 358 350 350 348 19 45 67 71 63 56 48 57 53 56 59 62 66 75 84 97 0 278 284 292 292 299 303 302 295 307 294 296 286 139 155 178 198 197 189 182 181 191 219 239 232 232 204 190 189 182 182 252 265 259 230 180 189 223 299 298 299 298 308 305 298 292 272 272 265 240 227 207 211 231 225 209 203 203 207 225 248 251 256 262 266 269 270 269 269 275 321 307 356 9 350 15 29 35 48 48 47 47 41 29 22 29 34 40 36 14 359 359 22 42 46 47 68 71 56 26 30 40 13 354 17 27 31 38 38 345 308 308 305 308 313 312 312 320 5 35 29 16 337 297 284 275 264 264 282 287 291 285 296 286 283 285 93 100 102 92 93 103 125 145 123 117 90 91 101 105 83 66 47 34 29 36 50 69 71 69 67 56 22 6 28 57 70 72 65 68 59 52 23 8 6 10 34 54 52 55 28 78 84 68 60 55 15 2 358 358 357 356 0 120 124 123 128 157 174 171 167 173 177 176 178 180 182 187 193 188
122 122 128 148 163 153 164 176 180 189 195 200 216 227 219 200 175 173 182 192 204 203 201 211 214 213 209 207 197 184 176 174 180 178 192 181 164 162 180 145 118 121 107 103 103 105 104 102 98 100 0 275 249 206 175 171 166 159 156 330 333 339 347 355 7 7 24 29 21 5 358 358 1 19 52 64 66 49 44 41 47 37 47 56 55 61 76 76 95 108 263 274 294 292 293 285 287 280 282 284 285 171 133 146 178 197 191 184 184 178 189 210 234 248 232 194 184 182 191 212 287 274 241 190 200 255 291 299 310 308 308 304 304 302 294 263 252 245 228 217 206 216 234 219 204 203 213 225 241 265 266 266 265 280 279 279 270 259 253 254 233 260 324 350 5 37 44 51 52 51 48 40 40 32 40 35 31 29 0 351 359 22 51 56 60 69 66 44 20 41 39 355 350 21 21 31 36 39 36 348 311 298 305 308 313 315 325 5 33 32 30 7 315 287 284 284 282 280 284 285 294 302 298 288 289 106 99 93 84 91 104 125 145 125 103 90 88 88 88 75 60 40 32 45 54 62 81 78 74 70 29 5 5 28 72 71 64 64 64 61 51 19 4 1 51 78 80 69 51 58 88 84 39 44 37 16 2 354 353 351 357 22 126 132 139 146 164 173 169 167 171 178 180 178 178 183 191 196 194
122 121 133 144 151 141 147 168 182 192 198 202 220 232 220 191 177 166 170 182 199 210 214 218 216 213 211 203 197 189 182 180 185 187 196 186 178 185 193 200 180 173 135 115 106 104 99 95 93 92 275 269 203 180 166 167 167 0 333 335 334 338 342 347 356 7 60 49 26 3 22 38 45 45 25 37 48 32 34 34 33 28 34 41 41 51 64 82 105 0 296 293 300 291 284 276 276 276 279 281 258 138 151 139 145 173 188 188 180 178 209 237 249 258 240 184 171 184 245 278 293 245 187 176 223 290 306 311 315 313 308 290 284 277 271 242 240 236 229 221 217 229 225 206 201 201 226 243 259 293 295 293 285 283 281 278 247 238 231 226 226 233 257 295 296 35 35 41 51 54 52 49 45 42 47 31 20 14 354 355 11 35 59 64 65 59 53 34 34 26 42 27 338 349 20 30 30 27 25 3 333 296 299 294 300 306 318 352 28 28 41 42 30 340 312 297 295 288 286 286 294 305 306 296 270 107 95 83 87 96 104 104 112 131 129 108 117 104 90 83 66 47 37 96 88 83 101 91 81 64 358 2 2 20 54 64 64 63 59 49 32 17 2 6 120 101 80 60 33 45 55 47 38 38 45 38 16 359 352 20 116 124 128 129 140 155 161 168 166 164 163 173 177 173 175 175 183 193 199
124 127 141 150 149 137 128 149 181 37 37 187 199 226 231 212 168 161 167 183 197 214 220 218 215 212 207 196 194 190 182 189 189 193 199 197 185 181 197 212 205 198 155 124 111 101 94 92 93 82 240 238 187 187 174 165 340 340 338 338 337 340 342 333 0 0 60 80 42 12 40 55 56 36 0 0 8 6 21 26 26 30 33 35 41 64 77 94 119 299 304 303 304 298 284 292 292 290 288 282 251 191 151 150 149 169 190 186 177 182 239 258 261 270 249 159 157 236 236 281 293 222 169 174 295 303 308 314 312 308 299 270 258 252 247 233 236 235 229 236 233 233 212 204 202 212 265 275 285 293 296 294 288 260 253 252 247 223 224 225 233 231 233 244 241 245 335 16 51 54 53 51 51 53 47 17 4 359 352 5 27 46 61 64 65 54 50 44 29 33 43 21 338 356 21 30 13 7 17 20 2 302 292 292 283 283 289 291 333 23 41 45 40 15 351 316 300 292 297 303 306 312 307 316 92 79 95 95 87 99 100 104 91 109 130 137 126 119 106 117 91 91 102 129 124 112 112 101 90 79 9 341 4 33 55 62 65 62 56 46 29 60 90 129 120 53 36 36 26 32 39 42 44 47 50 39 18 355 357 139 139 131 128 126 137 153 155 163 160 160 135 145 157 133 155 166 179 192 203
129 134 144 156 156 159 150 121 34 340 36 51 131 240 228 203 164 155 147 168 39 222 222 218 218 215 215 199 187 186 187 187 194 198 200 197 183 178 202 220 217 198 186 135 110 100 95 95 90 72 68 72 42 119 166 0 342 341 340 338 336 339 339 0 0 146 117 77 39 39 23 41 45 30 352 346 352 6 13 21 26 35 39 43 53 86 93 105 129 295 295 300 300 303 307 302 312 305 295 238 200 178 162 155 151 170 191 183 180 198 249 249 261 268 257 194 152 201 251 267 268 180 173 240 294 300 306 311 299 296 284 270 234 234 230 235 241 243 241 235 226 221 200 209 233 253 282 285 288 293 286 284 274 239 239 238 238 221 217 227 236 233 233 238 233 232 237 16 71 59 53 50 48 47 39 6 6 349 345 357 23 50 79 73 63 54 45 39 29 40 44 18 349 8 25 28 358 358 344 11 37 17 315 311 287 274 275 294 327 20 44 44 35 22 10 346 312 298 305 305 317 331 321 309 348 85 90 98 100 87 80 83 57 79 109 133 110 121 135 124 124 100 106 97 116 127 117 52 49 46 6 343 9 45 67 73 72 70 67 61 55 75 82 92 85 31 24 21 47 43 36 38 63 62 52 47 45 0 135 135 131 125 123 121 120 127 109 123 141 137 74 84 106 90 115 142 167 189 205
134 135 134 137 156 173 149 133 296 303 42 52 54 62 212 195 345 347 4 22 21 37 46 214 213 220 213 195 183 180 183 178 192 198 200 196 182 178 210 222 215 215 220 216 146 110 101 95 85 45 44 41 59 38 347 340 337 338 337 337 342 22 0 101 0 0 0 0 0 14 18 36 27 8 334 330 342 358 6 17 27 46 62 73 73 103 106 108 112 299 293 296 299 302 311 318 318 304 277 196 187 181 171 154 150 150 174 189 182 188 235 250 257 261 220 167 159 225 244 237 213 193 236 283 287 291 294 294 277 274 270 263 233 221 225 252 254 251 245 217 204 200 213 243 267 278 285 284 284 282 274 269 258 226 233 238 234 214 219 232 233 229 228 231 225 225 227 229 212 66 66 45 47 45 39 21 2 346 356 25 60 77 88 77 61 51 45 38 32 44 37 37 14 4 12 24 24 359 341 7 32 16 337 311 307 288 284 298 327 25 48 35 35 23 14 14 4 336 318 306 316 331 330 324 42 98 97 98 98 40 50 54 60 72 72 87 79 91 103 124 31 66 81 66 77 81 66 20 30 31 18 5 33 61 93 93 89 80 71 72 74 67 64 47 32 29 35 42 128 90 47 55 99 82 57 47 85 85 116 124 127 127 124 113 107 104 56 45 45 62 51 61 74 90 90 105 136 165 165
138 135 128 128 150 180 27 22 289 307 30 52 56 52 52 34 12 342 343 1 24 40 50 56 58 208 208 190 187 194 192 25 41 0 200 21 0 153 26 40 214 214 251 250 145 113 107 104 83 1 42 57 59 10 333 334 320 320 322 327 342 33 79 86 0 0 0 0 3 0 18 38 19 351 316 313 331 352 344 5 16 39 67 85 96 112 116 113 112 298 294 296 294 299 307 319 283 242 209 185 187 191 192 181 155 152 174 180 180 200 246 250 250 246 198 164 169 227 230 214 200 228 255 278 283 278 280 279 255 247 245 243 221 217 239 253 250 244 232 198 189 195 195 245 264 274 284 286 283 278 246 229 223 228 238 238 226 212 227 235 233 228 225 225 225 226 228 232 239 237 0 355 42 44 33 14 2 350 356 73 87 91 83 69 58 58 51 47 41 40 41 28 9 2 10 21 24 3 349 10 24 9 350 333 325 310 310 311 302 325 32 34 20 12 14 14 12 356 334 313 315 328 340 4 85 91 69 38 38 22 40 51 56 79 78 77 75 73 59 29 23 40 55 51 50 39 21 12 32 32 37 38 41 66 102 105 99 83 64 60 63 64 61 51 32 168 145 132 128 178 159 159 149 115 83 55 83 97 114 118 120 120 117 96 85 72 56 34 36 41 61 71 71 78 89 90 92 98 123
139 135 132 123 0 345 15 12 12 342 334 19 52 55 44 24 4 342 344 2 28 45 50 51 48 41 0 12 345 345 337 6 33 38 33 16 10 15 36 49 68 233 263 255 145 132 113 104 4 0 119 119 122 116 317 316 291 292 299 315 3 61 77 47 20 0 0 4 3 0 18 45 45 14 330 309 300 317 338 5 21 66 88 100 106 113 117 114 108 291 288 288 284 284 287 289 233 206 186 184 189 202 204 177 163 162 172 168 181 221 239 238 235 228 196 196 170 195 226 226 219 263 271 272 274 270 267 261 239 234 236 233 218 222 246 242 242 237 227 199 187 187 211 271 275 278 282 283 276 263 218 216 220 243 245 235 216 213 213 229 232 227 227 225 229 234 238 239 238 234 235 260 18 37 26 16 5 1 32 82 94 94 71 61 54 52 50 49 43 39 36 18 2 356 5 18 23 8 0 15 19 17 0 355 349 334 325 328 314 333 26 23 14 10 12 14 12 4 345 323 315 324 327 6 59 76 57 11 5 43 61 68 75 90 85 79 47 37 24 16 22 31 43 45 49 41 31 24 21 40 49 64 74 90 109 105 98 79 66 57 60 80 84 106 145 144 173 171 166 180 181 170 168 131 85 67 99 100 109 112 112 110 105 85 75 57 57 71 42 43 90 85 86 87 97 97 96 102 116
144 144 153 137 29 323 339 6 6 342 352 25 51 43 35 17 358 344 348 5 34 47 51 51 52 42 30 19 16 345 336 11 33 40 32 10 9 19 52 61 66 0 247 231 231 178 174 120 100 248 129 122 131 309 305 296 280 283 290 307 19 58 60 47 16 12 12 11 11 8 11 41 40 8 336 313 304 314 328 4 37 66 103 108 109 113 114 114 115 285 286 283 285 281 273 259 206 190 181 184 201 213 204 172 175 184 176 170 186 186 216 224 223 222 213 204 186 195 249 247 249 265 265 266 268 258 248 242 238 234 234 237 237 229 230 241 229 222 212 193 189 211 255 284 280 279 273 269 253 232 214 229 229 236 249 241 220 202 214 224 226 228 229 227 233 236 239 240 230 229 236 260 303 303 22 30 25 17 41 81 81 76 51 45 46 50 45 46 42 39 33 2 349 352 352 2 17 22 12 8 20 17 358 353 344 343 344 328 328 345 18 22 16 13 14 9 9 7 359 351 332 318 335 36 69 76 21 350 3 84 84 84 87 82 70 57 27 27 20 13 22 27 33 45 56 44 33 48 49 61 66 102 108 110 115 104 94 83 113 113 83 77 97 101 115 117 155 171 174 175 178 177 193 177 125 104 102 102 108 112 109 108 104 98 97 101 102 166 167 117 145 117 103 98 105 104 101 102 130
138 146 45 357 333 325 342 355 354 347 1 27 41 36 27 11 353 352 348 355 27 48 59 59 63 48 34 25 9 336 340 10 28 34 24 11 16 33 48 63 69 73 41 247 211 198 210 160 0 240 108 107 108 296 294 284 282 284 286 297 301 0 34 33 13 14 12 22 24 22 28 57 37 3 334 316 308 311 310 0 86 86 113 113 113 116 114 110 108 285 285 287 289 281 266 236 190 186 185 189 213 214 190 178 173 188 196 181 177 192 221 217 215 215 217 214 205 222 287 281 268 268 264 266 266 260 247 237 241 237 235 237 234 222 216 227 222 215 204 200 221 266 282 288 280 275 266 257 242 222 210 227 245 251 240 223 204 208 220 222 224 231 233 231 234 234 236 236 233 233 238 246 268 276 348 34 32 36 66 75 66 57 41 42 45 45 42 43 43 42 39 19 341 332 349 2 15 20 15 13 22 20 357 347 341 350 358 342 339 353 353 18 25 23 20 12 358 358 350 352 336 323 351 55 70 59 8 340 50 112 99 99 95 75 47 26 14 24 19 15 36 45 51 59 69 58 51 76 88 99 100 117 123 123 121 118 113 112 126 141 138 106 105 106 106 91 101 139 166 162 175 189 205 203 203 163 135 108 108 111 120 115 106 113 111 118 139 161 176 170 167 145 123 110 118 118 114 111 125
135 135 45 347 334 331 345 350 345 346 1 1 22 32 32 23 7 354 355 7 27 70 76 72 93 90 82 64 341 341 351 10 10 24 30 22 19 27 48 61 57 50 29 41 115 210 225 197 214 187 108 99 315 295 295 297 287 285 285 287 308 342 7 12 8 17 19 47 53 55 60 71 26 351 334 324 307 303 306 0 0 118 121 119 117 117 114 112 104 290 289 292 289 277 249 208 184 184 187 192 207 213 203 178 181 201 197 186 195 215 221 251 225 218 240 234 246 274 283 293 297 290 277 272 269 246 235 238 241 240 239 239 223 207 203 216 219 208 199 216 248 279 290 289 285 276 266 232 216 208 219 236 249 250 223 200 197 215 220 218 223 232 242 241 236 233 234 236 249 257 265 268 270 255 250 212 0 66 76 72 58 45 45 34 41 41 35 38 39 40 35 11 332 328 347 1 13 16 16 16 22 17 352 340 334 339 351 0 348 345 357 17 32 36 30 5 349 345 350 347 336 328 10 60 70 70 78 119 170 155 127 104 92 30 12 5 14 27 25 24 55 69 79 79 72 72 72 60 65 77 94 87 100 114 121 115 119 123 129 140 145 119 96 97 95 80 85 104 104 119 147 172 194 207 208 194 169 130 121 123 136 131 122 122 112 112 129 131 160 160 173 167 159 143 142 128 121 119 126
133 332 342 342 338 338 338 344 348 342 343 359 20 32 27 17 3 1 12 31 52 99 97 94 122 127 127 110 337 339 348 359 6 15 23 24 31 43 57 45 34 26 38 53 64 0 240 225 225 228 164 129 107 305 303 307 294 298 289 291 310 330 346 358 7 27 38 47 84 84 83 71 48 354 337 313 297 296 0 0 131 126 123 120 118 117 111 114 0 292 293 293 294 271 237 200 186 187 191 199 207 207 197 178 193 206 197 244 280 297 298 342 342 336 355 359 273 271 270 279 294 290 290 279 265 229 235 244 245 242 240 236 209 209 199 205 214 210 208 216 287 290 290 275 271 261 247 212 206 209 235 245 248 243 203 203 184 196 216 215 219 245 247 241 235 237 240 244 272 278 282 280 240 225 219 212 221 218 119 93 67 47 30 28 37 36 32 34 36 37 38 10 328 328 345 1 10 13 13 16 17 20 11 345 328 336 344 350 341 346 354 17 54 55 35 358 345 336 342 337 338 332 303 32 72 77 90 120 152 155 131 100 66 5 2 359 12 31 29 37 45 56 60 64 46 51 54 60 62 65 76 75 82 97 111 106 114 123 135 144 147 114 125 92 87 84 81 85 98 101 128 164 193 202 202 195 177 151 140 139 148 141 132 144 140 125 112 118 108 120 152 143 158 155 153 138 129 123 118
19 341 326 334 340 341 339 342 343 342 342 0 22 29 17 11 2 27 61 85 85 124 120 120 133 132 106 340 336 343 353 0 0 5 13 30 44 51 52 30 25 25 39 58 73 81 97 246 225 190 153 131 0 320 318 325 319 318 301 297 313 323 333 333 340 8 37 55 71 80 79 53 23 347 333 312 298 295 0 126 124 124 120 119 118 118 110 109 111 293 291 292 287 214 192 185 197 196 198 203 212 207 198 186 214 225 225 302 292 287 296 310 322 334 346 27 332 270 260 268 286 296 269 248 236 221 237 237 247 243 233 225 209 202 198 209 226 232 250 274 289 283 278 252 244 233 224 203 209 209 244 252 253 249 211 185 180 200 217 220 233 244 238 234 235 262 263 266 282 275 275 268 224 215 212 216 224 222 185 29 33 25 19 27 34 33 35 35 37 39 40 5 5 326 329 346 2 12 15 16 16 17 4 339 326 336 337 334 338 346 355 30 72 72 61 359 352 345 336 326 287 290 237 147 91 86 95 100 118 144 139 105 36 204 204 194 236 219 280 24 38 47 48 44 50 51 55 62 64 66 72 72 73 80 93 91 91 105 112 133 156 175 165 117 98 84 93 88 89 90 109 148 184 191 193 190 176 176 156 149 153 156 149 144 157 149 133 145 126 111 117 119 140 156 160 147 132 119 118
356 343 333 338 339 339 339 341 340 339 343 0 17 19 14 14 13 67 94 106 116 129 129 130 133 12 330 332 338 347 354 356 355 0 11 45 45 56 53 30 21 27 39 75 88 90 71 0 188 162 14 14 352 329 330 339 336 338 326 310 305 322 328 329 340 13 36 54 62 63 59 37 9 350 334 312 301 292 0 141 122 119 117 118 119 116 107 109 0 296 290 281 256 186 185 192 197 323 322 253 5 9 350 236 0 344 322 346 321 311 306 335 320 316 346 29 31 269 254 256 270 270 240 214 210 217 226 239 247 236 220 212 209 213 214 225 280 288 291 292 266 260 256 236 233 226 218 205 203 223 244 251 247 237 191 179 185 207 227 237 244 261 255 255 255 299 301 297 290 267 251 236 213 209 211 218 230 234 237 323 8 19 19 28 30 33 33 39 36 41 48 32 352 327 325 344 4 17 19 17 16 14 2 337 326 328 327 327 319 332 349 13 66 71 40 342 342 340 342 178 217 232 237 183 106 96 100 97 97 110 140 159 153 169 178 182 199 230 251 323 38 46 51 49 65 68 72 72 64 68 68 83 82 79 76 87 90 99 112 128 162 195 176 147 129 106 102 88 82 95 102 102 129 147 176 186 187 172 157 152 158 159 157 155 163 161 155 159 148 130 114 122 123 123 145 157 150 133 121
356 347 339 342 338 337 339 341 341 338 338 344 358 10 23 28 43 119 124 121 123 127 130 131 131 328 329 332 337 344 344 348 347 354 5 38 60 66 53 18 17 33 53 90 90 81 40 27 27 26 5 5 15 8 332 329 337 333 322 313 314 344 354 336 349 19 34 49 58 60 58 30 30 3 351 327 310 298 0 126 119 117 116 115 118 112 112 112 307 289 275 246 208 206 206 261 294 336 344 352 2 12 14 9 4 1 1 5 344 338 339 351 338 318 327 323 13 45 46 255 248 247 225 197 203 231 240 247 246 220 209 210 217 256 268 275 267 267 273 276 241 236 237 226 225 219 211 207 214 239 251 238 228 212 189 187 200 218 268 277 276 306 300 301 299 305 304 296 285 232 225 219 212 211 216 223 253 260 274 281 281 346 22 21 28 32 38 42 38 46 47 17 340 323 317 339 6 16 18 15 15 15 17 9 341 323 315 313 315 323 349 33 69 59 16 347 326 212 166 182 221 233 233 220 188 136 128 114 114 120 153 174 170 162 165 180 207 233 243 252 22 73 63 63 74 73 77 77 64 67 76 89 92 91 88 93 98 106 115 118 154 186 177 164 152 152 142 114 103 111 102 101 115 136 160 176 180 170 168 162 160 158 158 159 160 163 165 164 159 160 157 163 141 126 136 144 146 137 127
355 347 347 348 347 341 336 339 340 339 339 344 359 15 85 98 109 119 131 124 121 129 130 123 123 327 327 329 335 336 339 342 345 0 19 38 57 55 38 19 30 61 80 98 86 86 27 20 19 12 11 14 24 8 332 324 329 329 322 319 326 3 22 0 10 23 23 34 50 58 64 61 27 5 351 325 312 298 0 118 117 117 112 112 115 113 116 0 0 294 285 266 236 333 327 327 330 331 337 348 354 7 13 11 5 11 18 5 345 345 346 352 356 353 332 325 356 42 46 345 251 240 220 202 213 231 235 241 234 214 217 217 233 244 247 255 222 230 238 243 225 222 225 226 223 216 209 222 236 248 247 228 228 210 198 206 220 246 307 312 312 306 309 308 307 271 264 257 244 217 215 215 218 223 223 229 266 271 271 270 232 229 319 331 28 40 45 46 47 53 36 1 334 317 317 317 336 3 9 12 10 13 25 23 356 341 319 313 296 296 337 54 78 41 7 347 45 122 162 152 187 221 227 210 189 157 148 139 137 138 170 183 176 162 164 179 211 227 227 232 230 221 198 96 90 72 67 65 63 71 82 89 86 85 89 77 87 98 107 80 90 122 128 171 177 169 164 135 119 111 111 109 117 145 158 166 168 167 177 171 160 160 156 152 142 149 157 164 154 163 170 173 151 128 127 132 146 144 131
354 353 348 346 347 344 338 341 340 339 339 351 24 64 142 144 136 133 137 135 128 129 129 119 343 325 328 332 335 336 337 337 345 7 30 46 47 42 30 49 50 80 98 104 94 63 27 11 18 17 29 25 27 7 328 320 325 325 324 325 325 339 28 52 29 18 21 34 53 59 69 63 26 9 353 326 320 0 0 112 113 113 113 107 110 116 108 112 289 291 315 321 322 333 334 328 327 320 328 339 354 357 1 1 359 15 32 32 348 339 346 354 3 5 344 328 345 36 46 34 284 239 229 221 227 227 231 232 232 235 225 231 239 219 216 219 222 218 225 229 222 218 220 223 225 220 220 233 240 245 247 232 217 199 198 260 285 299 311 315 315 312 292 287 280 227 226 226 224 211 211 211 214 243 251 257 275 267 252 238 227 236 253 280 12 42 48 45 50 50 36 15 352 336 329 323 331 349 348 1 0 10 33 31 11 346 313 305 211 221 221 206 189 163 12 8 121 121 139 138 175 210 216 212 198 174 158 152 152 156 181 187 187 179 168 162 173 201 221 226 226 221 213 170 126 68 60 59 67 73 82 87 67 67 64 65 71 75 78 66 71 88 100 145 182 185 179 159 135 120 123 123 132 146 146 152 157 147 160 171 159 160 160 148 135 135 143 151 139 156 173 166 153 126 119 122 122 139 123
353 349 346 337 339 340 339 336 334 335 339 36 36 101 129 141 145 139 133 135 131 122 117 338 324 328 334 338 337 337 336 335 347 347 17 41 50 47 50 73 93 106 107 90 64 21 6 12 25 32 38 31 29 2 1 323 318 319 323 326 328 0 72 79 56 8 19 38 59 64 73 64 28 15 0 339 339 0 0 109 106 106 106 102 105 110 106 108 292 300 317 329 321 304 327 321 315 300 300 307 322 327 343 347 3 41 55 33 340 340 347 3 16 13 347 331 343 29 45 38 37 20 2 328 298 267 351 323 279 355 346 282 228 254 226 217 215 231 229 228 233 226 220 220 225 230 230 241 240 239 238 221 210 207 228 292 301 307 292 293 293 293 255 253 242 211 214 214 212 214 217 220 229 273 275 277 260 244 226 220 241 251 259 263 272 323 34 45 45 44 36 6 351 340 344 328 294 303 261 306 335 352 34 35 35 84 0 232 211 196 203 201 209 209 205 172 155 129 128 124 152 196 213 214 202 177 177 160 155 157 174 191 194 183 170 158 167 195 217 225 225 223 221 210 126 84 72 72 78 75 79 81 61 55 59 88 86 78 70 75 77 85 100 110 162 182 177 174 174 155 149 131 127 140 148 145 145 150 157 158 159 158 162 147 135 126 125 132 110 120 120 98 132 151 127 106 101 111 123
353 343 338 337 331 331 331 325 328 325 329 51 113 119 121 129 132 131 122 126 124 122 346 323 323 332 338 338 341 341 342 339 343 355 31 52 56 54 64 73 106 109 102 50 21 8 7 21 21 32 34 34 30 28 17 324 315 319 319 324 331 61 83 77 47 10 25 48 61 73 73 77 66 39 25 8 0 0 0 104 102 103 103 102 101 104 106 0 287 293 277 277 266 282 278 305 309 287 282 284 297 303 322 333 15 55 55 13 333 342 350 3 30 30 21 354 340 353 23 22 24 23 2 353 350 351 356 348 351 355 9 14 353 356 356 350 306 346 335 267 322 238 225 220 258 252 244 241 236 230 228 224 230 253 280 283 285 287 250 243 244 250 233 223 211 211 214 213 211 245 253 258 267 270 267 266 235 235 225 218 253 261 262 263 264 283 21 43 42 34 21 4 352 345 108 167 225 239 223 237 262 291 229 0 80 155 174 185 188 195 203 209 207 203 194 184 173 142 125 124 122 133 176 203 212 198 175 162 155 158 184 203 199 188 169 158 166 195 211 225 225 223 221 223 225 225 177 90 89 87 85 76 64 70 81 88 102 91 81 99 94 91 91 98 98 119 120 154 170 167 159 136 129 140 157 150 145 152 156 156 155 167 170 149 158 138 120 110 95 86 80 98 93 116 119 99 91 96 106
6 357 345 335 333 327 323 321 321 317 325 117 118 115 111 121 122 121 115 118 118 118 352 324 323 331 335 340 341 343 343 341 357 17 55 65 71 71 78 88 103 99 99 45 20 10 13 24 26 29 25 28 29 31 38 325 312 315 313 318 339 83 91 78 78 51 26 40 57 65 80 85 84 57 36 18 0 71 101 95 99 102 103 100 101 101 100 105 284 280 268 240 241 266 266 273 288 285 285 280 283 286 300 317 17 54 47 47 345 324 341 353 26 40 26 0 353 4 18 1 0 8 357 353 357 358 346 344 344 352 6 15 20 2 0 7 0 351 3 10 22 1 257 253 311 304 276 249 288 288 246 319 275 270 277 254 250 252 231 228 232 236 222 209 204 209 229 229 232 276 275 275 275 252 248 242 239 239 237 241 273 270 266 262 264 270 336 36 42 25 13 11 11 345 176 166 173 208 219 231 240 240 196 174 156 165 173 180 187 195 204 208 203 204 204 198 204 187 155 131 125 130 157 188 207 195 174 164 155 159 199 207 195 186 169 169 158 162 168 199 220 215 215 219 225 226 209 124 109 92 85 72 87 96 101 104 113 114 108 118 116 110 103 106 102 104 117 127 147 164 153 142 135 148 158 154 146 160 160 158 160 172 181 183 168 149 115 101 104 88 79 86 82 85 100 102 95 94 95
10 5 355 342 340 328 321 323 316 305 0 106 104 104 111 104 116 118 122 121 121 116 324 323 324 332 337 341 341 340 343 347 357 63 81 79 84 85 93 93 92 91 76 28 14 13 20 23 23 23 25 33 40 48 50 318 310 310 308 309 317 40 87 97 88 56 45 50 57 67 83 90 53 49 39 26 26 52 78 71 93 101 104 101 96 95 100 101 280 276 266 238 250 265 261 263 277 269 279 279 279 277 280 289 306 6 48 42 348 317 337 0 45 48 26 4 1 7 6 346 350 358 358 353 350 354 342 339 342 352 11 9 11 349 355 5 355 343 3 18 22 33 340 340 306 311 323 327 340 349 343 0 341 286 264 245 239 237 231 249 244 237 228 220 225 225 312 299 284 311 295 279 262 281 255 242 239 273 271 271 281 275 269 264 280 277 277 271 109 93 62 175 176 179 176 183 186 203 217 227 228 215 183 175 166 165 172 183 183 196 200 201 202 207 211 209 209 196 166 135 131 134 148 167 195 192 176 166 157 157 167 205 207 193 181 168 161 159 161 189 211 212 217 219 225 225 218 191 109 101 101 86 105 109 113 113 126 129 122 123 120 118 112 107 111 115 117 104 111 133 125 133 133 131 130 149 161 170 169 166 167 182 197 199 168 169 139 117 121 116 106 93 112 112 105 119 117 100 90
11 13 8 355 352 337 328 329 314 314 292 102 103 100 98 108 119 124 130 127 122 353 325 325 327 333 337 339 339 336 336 343 0 70 83 88 84 92 100 97 84 73 51 29 22 18 19 19 19 17 22 53 53 69 91 7 317 310 308 311 326 62 89 96 97 0 45 45 53 54 66 63 37 37 45 45 0 356 36 75 98 105 104 98 92 93 96 86 286 279 267 254 255 261 251 249 250 247 247 261 275 279 283 290 303 352 40 40 1 320 335 17 55 42 22 7 7 0 357 333 338 347 356 355 346 348 341 343 353 7 23 1 351 345 350 357 347 347 336 354 20 34 41 358 299 288 305 323 319 347 357 4 9 336 266 292 282 271 259 313 306 275 322 312 311 314 333 335 324 329 327 325 315 340 321 295 279 297 289 283 301 300 296 291 307 302 289 181 153 155 171 175 174 175 180 193 194 203 221 232 231 231 187 172 176 170 158 167 182 199 206 201 202 218 222 217 205 199 175 142 133 131 137 120 135 175 188 178 168 160 178 207 208 197 182 169 160 156 153 178 203 221 229 226 226 220 227 227 214 182 126 107 122 123 124 124 129 135 130 108 107 106 107 86 87 90 90 70 78 86 101 109 120 125 132 137 156 160 167 172 178 191 199 199 183 180 160 160 156 136 135 133 147 139 127 132 141 129 109
7 17 18 18 11 358 346 338 343 330 345 106 112 108 104 114 119 128 131 124 0 325 326 328 328 329 334 338 339 335 335 347 32 80 81 81 82 92 97 94 72 59 43 29 23 17 17 17 17 19 15 94 102 100 45 335 321 312 313 319 335 62 88 90 0 21 34 34 36 32 33 33 21 42 52 53 353 332 24 75 103 106 104 94 88 94 98 0 0 278 260 253 249 247 255 252 249 247 262 270 277 289 290 295 303 339 32 37 12 343 343 350 55 54 32 19 7 350 338 319 325 340 358 1 347 341 340 349 4 22 23 23 359 346 349 351 354 354 337 349 18 27 40 16 328 278 281 295 291 319 347 4 13 13 14 2 332 318 317 324 335 337 349 340 327 326 325 338 333 329 336 342 347 349 349 346 335 332 309 303 309 308 308 307 307 306 297 181 147 162 173 175 172 172 183 188 201 200 213 227 237 229 178 169 182 170 151 155 175 191 208 207 208 226 221 210 201 201 201 181 144 123 120 120 109 131 169 162 163 160 183 202 205 197 181 169 158 151 146 144 169 204 232 237 225 226 236 232 218 204 151 120 118 124 123 123 93 100 106 108 68 74 78 55 52 52 61 90 95 99 115 113 121 132 131 121 132 160 144 171 190 180 183 189 193 192 186 177 177 147 142 148 162 154 139 132 150 150 146
352 1 16 18 9 1 354 348 358 2 69 114 120 120 115 115 115 124 124 123 342 325 322 326 327 329 334 337 337 333 343 19 68 84 78 74 82 85 82 78 59 57 49 40 31 26 22 23 27 41 55 136 126 107 45 335 324 316 321 327 351 351 77 86 79 11 6 11 22 25 10 4 21 53 64 61 345 326 46 90 106 105 105 95 92 93 96 94 0 263 260 250 250 254 289 285 278 266 300 293 290 297 294 297 297 305 333 22 33 22 8 25 54 42 24 16 3 339 324 311 310 325 353 2 349 349 336 342 354 9 23 19 0 349 351 355 0 9 347 347 8 18 33 32 328 290 274 274 272 274 285 315 321 2 15 3 346 328 322 320 333 346 349 348 335 321 324 331 331 330 323 331 339 340 345 346 346 349 325 313 309 308 306 305 304 311 30 128 141 141 159 168 173 170 171 194 206 204 213 238 239 219 176 176 190 170 160 145 156 183 217 217 223 237 225 212 203 198 208 193 152 119 114 110 107 109 133 130 147 156 181 189 189 197 192 182 171 157 141 133 157 207 235 228 218 247 247 227 215 220 180 118 118 102 102 98 61 60 57 61 51 54 57 68 70 78 86 119 124 123 122 115 122 135 128 128 114 110 111 121 154 162 175 188 197 195 191 190 190 161 148 158 176 169 149 139 147 149 155
342 1 12 14 10 3 356 355 23 80 109 120 120 122 122 114 116 116 119 355 319 319 320 325 326 329 332 333 332 337 11 64 84 90 89 84 79 78 71 60 43 40 33 32 24 22 23 36 52 84 120 122 81 22 352 349 342 331 337 329 329 7 84 84 65 1 359 7 19 20 4 355 20 61 68 55 51 343 329 90 105 104 99 81 90 97 97 93 0 253 251 250 255 276 296 301 304 305 310 308 303 301 298 295 297 304 329 18 35 31 33 51 52 35 19 14 355 327 317 321 317 307 312 329 356 351 337 346 358 11 22 17 359 349 350 0 12 20 8 352 0 1 6 21 35 32 331 277 270 267 271 283 294 333 2 357 353 338 324 320 326 339 339 345 353 350 351 337 327 324 320 326 333 338 346 346 350 358 340 318 312 314 309 309 316 315 338 102 120 132 151 158 164 164 172 196 207 211 225 255 242 207 175 184 193 193 194 181 152 151 186 234 242 234 219 204 194 198 220 213 166 128 116 112 113 102 102 103 115 132 145 147 168 184 185 183 175 157 141 126 142 210 230 220 229 262 234 204 204 217 229 199 118 80 65 62 57 54 48 49 67 69 70 114 121 121 120 110 116 116 124 112 118 123 128 138 126 115 126 122 136 139 161 184 198 192 192 195 190 177 177 157 170 184 184 166 159 151 158
345 3 11 14 11 3 3 0 70 116 130 125 116 116 115 116 120 117 111 322 316 316 321 323 326 329 329 329 330 329 351 58 84 84 88 89 84 60 53 43 32 32 25 24 19 23 30 36 84 84 108 87 6 359 355 354 351 344 6 349 322 34 86 78 36 1 3 11 21 15 15 2 359 36 62 68 45 357 56 104 97 86 80 81 91 96 96 96 0 254 253 252 252 258 273 284 293 304 298 299 300 301 294 294 295 300 324 21 41 40 48 58 51 51 35 15 1 351 328 321 315 307 309 326 350 352 341 350 2 14 24 12 354 347 350 350 5 17 21 15 3 3 4 16 33 38 20 288 273 264 267 274 277 299 337 357 330 347 344 327 323 327 334 336 350 353 355 350 335 324 331 329 332 338 349 347 349 348 2 350 325 324 323 321 325 327 86 113 115 121 136 158 148 157 172 196 211 228 247 256 254 223 171 173 187 195 197 191 169 151 202 241 245 227 213 194 180 204 232 228 242 162 138 135 153 126 105 103 105 116 132 127 144 164 176 179 180 164 154 130 135 209 209 237 247 263 241 194 191 227 230 210 135 64 54 55 57 52 52 61 99 101 104 104 105 110 109 64 68 73 90 89 102 110 116 140 146 138 142 128 123 139 138 165 165 159 184 194 197 196 189 170 177 186 189 180 170 159 166
338 354 7 16 15 7 10 29 97 113 120 119 108 108 110 120 122 116 57 320 317 317 318 320 321 326 328 329 328 329 21 67 79 81 79 73 65 35 33 30 26 26 23 23 22 23 38 54 92 99 104 336 338 347 353 355 356 2 24 14 349 56 76 43 43 3 3 15 23 31 16 4 9 53 75 73 42 45 99 104 65 57 67 78 89 92 92 91 91 0 264 260 257 261 267 272 279 290 280 289 294 295 291 292 293 294 311 311 36 67 51 57 61 51 30 3 351 354 340 326 315 310 313 322 341 347 344 351 351 5 17 20 7 348 345 353 6 16 18 15 7 5 7 18 32 39 32 335 309 269 269 266 260 262 270 290 269 305 329 299 306 315 323 315 333 346 345 353 345 336 344 344 333 328 325 342 345 348 3 352 328 326 325 331 324 140 122 116 113 113 119 137 135 135 150 170 203 226 246 245 227 194 168 167 186 197 196 194 185 174 225 250 247 208 208 205 192 182 213 244 237 156 139 150 178 137 110 103 105 111 118 118 126 141 161 140 163 177 169 161 139 138 234 266 276 272 192 176 198 229 222 217 210 257 58 58 67 67 68 78 89 92 96 99 71 64 60 62 64 68 76 84 85 95 102 118 144 153 149 157 145 125 124 119 133 129 164 192 197 196 195 181 188 188 191 189 175 166 173
343 2 16 21 15 7 35 71 101 108 110 109 109 110 114 120 124 121 91 322 321 318 318 319 320 325 327 327 325 333 32 65 77 73 54 45 37 26 22 22 24 26 28 26 36 45 67 83 101 100 82 319 331 346 353 355 358 12 12 25 19 16 64 55 358 350 4 25 34 37 22 17 32 74 85 72 42 63 81 79 43 43 52 71 87 88 90 85 85 0 270 265 258 261 267 264 264 270 270 284 292 292 292 290 292 291 291 303 71 66 55 61 61 53 16 349 340 356 352 333 317 312 312 308 314 326 335 335 348 5 17 18 4 348 353 0 7 13 13 13 8 8 12 20 20 31 34 31 17 6 287 264 257 253 253 255 244 257 282 253 264 281 296 294 305 305 321 319 340 344 349 357 340 321 317 326 338 345 358 351 335 328 325 335 324 153 138 138 135 120 113 113 122 129 141 163 216 241 250 232 211 189 168 162 185 198 195 196 196 196 233 256 263 208 186 200 196 197 226 246 237 157 142 164 214 139 108 103 100 100 106 113 125 130 130 128 140 158 169 154 145 153 256 263 252 232 177 177 215 222 220 220 231 242 240 71 68 82 86 88 69 67 68 72 62 55 57 91 89 87 85 96 96 96 98 77 85 113 102 140 155 142 136 133 124 107 119 172 193 192 197 192 188 197 197 196 191 174 169
350 7 17 19 10 33 75 91 103 103 106 108 111 116 117 120 124 106 330 323 323 319 318 322 323 325 327 326 324 339 45 45 75 81 51 32 29 23 23 23 24 33 38 38 64 82 94 98 100 91 9 319 315 332 350 0 0 0 13 23 22 36 69 27 333 341 5 35 43 37 29 34 51 70 70 71 59 46 46 47 41 51 67 82 93 88 84 85 77 0 274 265 264 265 265 266 257 254 264 275 284 291 288 288 291 291 294 335 69 63 57 64 64 40 1 337 342 330 349 353 333 318 310 308 307 315 324 327 342 1 16 10 359 352 358 5 9 10 9 11 11 8 11 17 22 26 30 30 29 24 345 278 287 260 248 243 247 245 246 246 256 262 270 281 293 301 303 305 317 331 338 0 353 330 324 315 326 345 350 350 341 345 330 325 0 146 155 150 151 135 123 120 126 124 130 160 224 243 244 228 206 188 188 157 159 186 195 196 199 211 255 259 248 185 182 205 209 216 228 241 227 155 150 150 222 238 141 102 99 94 99 111 125 137 131 135 138 139 151 139 138 179 254 234 221 221 202 175 190 215 220 232 241 238 240 228 80 75 73 72 65 63 64 66 83 83 83 108 109 107 102 101 92 83 79 56 65 77 64 77 114 139 113 131 127 119 105 126 126 128 174 197 202 205 208 205 193 172 170
358 7 21 21 26 54 82 97 107 104 105 107 108 117 122 123 114 319 319 320 321 319 321 323 324 324 327 329 330 331 0 54 74 71 36 20 20 27 32 31 28 42 52 56 82 95 95 100 93 91 68 325 310 332 352 358 5 7 15 23 30 57 71 354 322 333 5 38 38 46 39 36 48 65 65 61 52 47 40 38 59 70 82 91 85 76 75 76 78 78 0 257 268 278 274 263 259 259 280 281 284 288 289 290 290 289 298 22 69 61 61 59 70 31 11 0 356 336 336 344 333 322 312 305 302 308 315 291 312 348 13 344 344 347 342 356 6 9 9 10 10 9 13 17 20 28 33 31 29 23 10 339 339 339 306 275 315 281 258 253 279 280 278 280 289 302 304 296 299 309 315 349 358 347 339 339 316 316 318 338 350 351 329 149 139 137 149 157 158 150 137 129 131 128 129 160 166 228 245 247 235 201 178 153 155 182 196 201 213 237 252 237 215 185 186 214 224 225 215 227 243 202 147 159 231 237 177 112 105 95 101 111 108 131 137 148 147 139 140 142 132 128 233 232 206 212 201 177 200 215 231 240 238 241 245 245 81 72 67 66 86 85 87 87 113 108 106 108 115 115 108 74 50 49 55 54 59 62 61 62 62 83 72 88 108 129 129 113 105 102 117 178 204 206 217 216 200 173 166
350 353 16 42 51 100 108 110 107 104 102 103 107 115 121 120 330 309 315 312 317 317 319 321 324 326 327 331 335 343 14 44 59 53 31 19 19 35 39 34 34 33 51 64 70 91 96 94 75 74 27 308 298 321 344 348 4 14 21 27 45 45 74 57 334 321 331 2 35 43 35 38 54 68 68 63 56 50 43 47 59 80 87 87 85 74 66 72 81 83 90 267 275 279 273 273 279 280 280 281 282 286 287 288 288 287 284 290 81 140 0 45 45 3 1 4 356 342 333 337 334 330 319 304 273 276 276 252 253 249 261 272 300 321 342 345 2 8 9 10 10 11 15 18 22 35 37 37 32 26 21 13 1 352 341 333 345 342 307 280 285 284 280 269 270 280 292 287 290 290 293 305 332 354 2 351 327 313 317 332 352 139 157 146 136 130 135 150 158 156 156 150 147 138 135 138 176 239 249 249 234 177 165 159 153 176 196 218 243 256 231 231 218 201 179 193 219 224 225 241 246 180 139 164 231 232 197 135 118 94 95 99 105 105 125 125 146 150 144 138 128 128 233 194 194 215 200 182 195 213 234 237 237 250 250 253 254 0 90 89 86 110 113 116 130 132 125 117 113 104 92 31 29 45 53 66 66 65 63 69 70 66 82 87 96 117 123 123 110 98 98 119 185 196 225 225 200 210 177
344 359 51 80 90 110 112 112 110 101 98 100 106 106 111 115 79 307 305 312 315 316 318 323 327 328 329 337 345 359 18 30 41 40 32 30 26 34 36 35 29 39 56 68 78 79 80 78 63 62 6 295 285 302 326 309 331 356 13 26 39 64 79 23 328 324 336 358 26 35 36 43 59 72 68 64 59 54 46 46 59 81 84 86 76 69 73 80 86 83 84 272 266 263 265 287 292 290 290 281 276 276 274 278 282 285 279 244 135 184 199 0 10 293 341 1 358 336 333 334 322 323 325 308 231 240 248 248 243 237 246 263 275 291 316 313 347 3 3 8 9 9 13 18 22 27 33 36 32 23 15 10 3 352 347 346 348 358 349 303 287 275 275 270 265 260 264 277 287 292 294 296 315 345 356 354 338 321 322 333 45 149 154 150 150 148 136 127 133 136 148 151 144 138 135 140 197 249 252 240 212 160 160 162 155 155 170 212 243 256 222 215 214 196 179 201 221 238 248 255 240 172 139 167 229 227 209 209 206 174 111 97 96 98 106 98 120 135 138 122 121 128 189 174 201 217 198 184 184 193 224 237 241 249 250 256 259 0 106 109 111 113 116 123 117 128 130 122 83 59 59 26 34 53 69 95 85 76 70 81 81 80 93 97 101 109 103 109 104 55 65 65 77 79 127 223 230 218 186
341 359 86 97 104 99 100 100 102 100 103 103 108 105 106 106 327 306 307 312 311 316 320 325 330 331 332 338 338 350 5 21 27 29 29 34 34 34 34 32 29 43 56 65 74 57 63 64 62 62 58 13 289 278 289 309 324 348 11 40 64 81 81 348 328 329 342 359 19 32 47 47 55 68 72 63 59 49 46 54 72 86 84 80 69 67 78 87 86 84 82 272 260 261 265 292 292 293 289 275 272 272 270 274 281 284 270 170 152 184 205 213 237 237 237 252 309 285 308 319 257 240 219 216 219 239 247 248 245 247 254 258 271 279 288 276 276 297 294 339 4 10 17 19 23 27 28 32 31 21 12 5 0 351 347 346 346 347 357 3 352 303 277 270 282 276 273 287 290 293 291 282 289 319 330 343 339 329 328 329 108 135 143 145 149 151 148 136 128 129 134 139 129 133 134 140 218 249 247 247 231 195 151 148 159 155 168 234 251 242 212 219 216 189 184 207 226 238 259 248 217 201 175 147 170 221 222 214 210 198 160 104 80 79 85 98 87 97 110 114 127 125 125 124 140 202 215 199 185 200 236 246 249 249 265 267 268 120 110 113 114 113 108 108 99 98 98 101 57 47 33 26 116 110 105 112 100 90 83 84 81 84 97 95 95 95 73 64 53 50 48 57 66 83 101 201 229 226 204
355 355 82 98 96 87 88 90 94 101 109 111 114 108 105 97 309 306 310 311 309 315 315 313 322 328 330 328 333 346 0 23 26 23 32 38 38 35 37 35 35 48 55 55 58 54 58 67 76 65 59 28 298 285 292 306 324 348 18 68 87 88 67 342 335 335 339 349 8 23 59 64 71 75 63 59 54 54 59 73 84 90 82 75 70 69 69 77 83 84 84 86 275 282 292 294 291 290 284 273 271 270 271 277 283 283 242 148 148 155 194 209 216 233 238 239 254 255 262 264 207 198 199 200 234 250 249 246 249 249 246 245 260 270 276 273 271 275 254 263 324 12 4 12 16 20 20 29 28 21 21 13 4 356 352 348 349 350 355 3 3 332 295 287 293 293 290 284 284 285 282 272 272 273 269 290 315 327 297 143 131 134 139 137 141 144 155 149 135 141 134 127 126 126 127 131 141 223 244 241 225 185 147 146 155 157 178 243 242 220 223 227 208 184 198 198 222 244 260 249 224 199 178 152 174 223 220 214 213 213 209 104 84 82 84 85 74 74 84 97 111 130 132 131 132 185 207 199 188 208 262 263 262 263 289 286 281 292 110 112 114 110 110 103 76 65 60 61 55 56 77 114 132 127 122 125 113 97 89 112 106 98 97 88 83 78 56 45 37 39 72 74 77 90 95 145 225 238 223
8 31 95 94 89 94 92 94 96 113 117 117 114 113 106 73 327 308 306 309 307 305 307 303 315 322 325 328 327 334 0 45 33 23 51 45 42 42 50 46 40 53 56 58 58 78 80 82 76 63 61 39 310 297 301 311 322 350 39 84 99 96 77 0 343 338 339 1 26 43 73 82 79 70 65 61 54 75 86 97 97 110 101 89 78 81 79 81 90 91 90 87 283 289 294 289 288 287 281 272 268 267 267 273 277 281 273 164 140 162 213 219 226 231 231 233 245 251 248 234 207 197 209 209 235 251 255 248 255 246 237 274 274 273 273 270 266 258 254 234 241 300 291 349 349 0 340 9 25 20 18 13 4 0 356 352 349 356 357 1 3 348 309 294 283 284 284 272 274 276 279 276 266 264 269 272 286 299 168 152 139 135 135 135 133 130 148 148 154 153 158 153 138 134 125 124 147 219 238 234 218 181 146 143 149 160 202 244 223 223 213 234 218 196 194 225 247 258 261 244 214 196 175 156 184 222 219 215 213 230 230 232 207 110 90 81 81 81 88 97 108 130 139 138 132 169 207 203 206 241 284 284 285 282 287 290 291 0 110 109 108 80 78 78 76 47 54 59 58 66 90 121 111 111 121 111 122 125 118 112 115 107 97 88 80 68 56 50 53 64 87 89 90 96 96 97 113 216 243
50 83 94 94 95 94 109 107 107 123 123 124 122 122 116 104 315 310 308 308 307 300 297 303 314 319 323 338 315 282 302 191 177 169 189 163 82 53 80 65 51 53 71 74 77 110 101 91 75 44 51 28 314 314 305 307 307 311 2 84 106 71 33 358 346 336 339 6 36 57 93 98 90 70 101 80 71 68 92 95 106 118 131 120 97 113 97 91 97 96 92 92 275 282 287 289 285 286 284 282 275 268 268 272 274 277 270 123 132 176 227 225 227 231 215 232 246 253 251 240 217 207 225 233 242 254 256 256 284 278 273 274 289 278 272 249 230 225 225 235 238 237 226 229 246 305 279 340 18 20 12 10 5 1 1 0 357 4 3 0 1 359 352 318 301 282 273 272 279 281 282 291 278 269 266 273 271 239 157 153 144 144 140 135 133 127 116 125 142 138 157 164 153 146 134 131 157 214 231 227 217 183 147 147 144 150 176 243 220 208 226 228 198 185 218 246 255 262 264 246 214 196 168 164 164 206 225 222 219 237 240 237 212 130 97 87 101 98 95 97 112 132 147 149 137 137 160 200 223 248 290 288 288 287 287 286 287 0 119 101 85 55 54 53 48 62 68 68 56 66 82 90 104 102 103 59 67 89 106 86 93 96 92 85 74 64 59 60 60 72 82 87 92 97 100 102 111 195 231
91 97 101 103 103 108 122 125 121 125 128 129 126 117 107 27 317 313 312 309 309 304 303 307 319 319 324 342 28 165 201 180 185 193 192 189 185 137 151 116 91 75 109 107 110 117 97 97 70 31 39 50 0 314 307 306 293 282 126 117 60 17 7 3 353 338 339 9 9 58 101 106 110 112 140 125 101 94 65 68 92 107 137 151 144 144 113 99 92 92 93 94 103 273 277 282 283 283 283 291 288 278 272 276 274 275 242 118 128 195 221 221 223 217 191 206 241 260 248 228 208 236 250 239 262 279 285 287 299 306 306 300 299 292 277 234 219 210 221 244 237 229 217 221 227 244 251 270 348 9 358 4 4 1 1 4 6 10 10 9 7 359 350 330 318 293 281 278 289 291 292 304 303 289 278 290 279 258 152 152 153 149 145 137 134 125 121 115 121 118 139 161 161 153 142 139 163 163 214 230 226 217 183 149 142 160 217 214 195 217 240 207 184 185 250 258 259 264 271 263 243 206 169 167 174 218 231 229 230 249 249 243 219 137 114 106 113 111 107 107 118 118 135 156 157 144 153 228 268 286 308 300 290 289 289 282 266 148 142 101 59 47 56 59 54 52 58 57 82 95 105 107 96 75 61 59 51 62 76 70 77 87 87 74 68 65 62 60 67 77 90 90 93 97 102 105 110 154 209
108 106 120 116 115 116 124 125 122 118 121 123 123 108 61 330 317 318 316 316 318 316 315 315 326 325 328 30 88 124 171 155 177 191 192 188 194 185 178 163 151 151 153 133 121 107 85 51 32 41 54 54 0 315 303 300 264 181 138 123 346 349 349 350 7 6 351 10 56 94 101 115 120 130 151 154 133 95 42 61 82 103 122 122 150 156 153 113 95 95 99 103 115 278 279 282 285 284 287 299 301 296 285 287 277 277 270 202 124 133 195 210 208 200 192 225 258 256 233 216 214 237 234 225 262 288 288 295 274 281 289 295 269 265 250 208 209 217 236 232 218 214 217 228 234 240 244 250 250 272 273 318 344 346 1 7 11 15 14 12 7 1 343 337 332 304 288 286 280 280 286 283 295 304 301 287 275 205 152 148 151 153 145 139 139 133 135 122 114 119 119 124 145 148 153 146 142 164 216 230 228 214 177 146 133 175 228 196 200 234 236 193 193 187 211 284 283 278 267 252 228 185 168 176 192 239 242 239 244 257 253 248 219 213 129 120 133 128 125 122 126 121 131 147 159 156 160 288 301 308 308 315 300 292 291 291 276 212 156 179 218 220 70 62 51 63 69 73 82 108 106 105 47 37 40 44 49 58 63 53 57 67 75 60 58 62 62 79 89 91 111 106 101 100 107 104 102 95 112
121 121 132 128 124 121 126 121 116 113 112 113 116 111 69 343 326 327 320 318 319 317 320 325 328 324 332 65 87 100 130 100 139 172 176 90 153 188 179 181 176 169 159 135 117 72 38 20 26 70 70 45 350 317 298 287 302 0 137 118 346 335 335 342 8 19 14 102 124 117 114 125 130 139 113 59 30 30 45 89 102 122 105 104 123 106 126 110 99 106 105 107 0 287 284 285 286 287 293 299 301 305 308 309 300 283 264 184 138 147 194 203 199 194 221 261 269 220 208 207 207 216 223 217 231 255 262 267 252 255 261 267 229 221 211 207 221 234 240 219 207 210 210 239 240 238 247 246 248 253 259 282 313 312 352 6 14 20 19 16 15 3 337 337 336 345 323 293 286 276 276 273 276 283 288 273 249 151 144 142 144 149 140 142 142 147 149 145 135 137 129 124 131 139 150 149 144 164 216 232 232 214 169 135 120 180 180 209 196 216 235 214 206 232 273 296 293 280 240 232 209 178 175 197 221 260 263 263 266 281 275 265 254 176 133 129 144 141 137 133 131 123 125 134 152 168 215 305 311 311 314 304 307 304 294 286 242 168 158 201 231 225 119 68 58 105 109 110 110 97 97 87 30 20 29 40 52 60 59 56 61 67 67 47 50 61 69 101 110 112 122 122 126 121 124 112 101 74 75
128 130 133 135 131 126 135 135 130 117 118 115 113 74 343 333 330 329 322 319 316 314 320 328 324 320 349 65 85 85 86 62 59 47 45 76 101 157 160 175 176 171 161 121 96 72 27 34 58 76 76 58 20 349 331 313 350 12 40 23 351 338 334 342 27 59 72 142 137 127 124 126 128 129 26 4 5 14 113 126 134 122 109 97 95 104 114 115 110 108 106 106 285 285 285 285 287 290 294 299 299 301 308 304 301 279 241 179 152 160 197 204 193 196 220 255 262 246 199 198 205 237 225 219 238 251 245 247 240 238 236 234 213 207 201 207 225 238 234 228 225 221 228 292 274 255 296 260 249 250 266 268 278 312 325 357 15 14 25 24 20 17 4 337 341 351 342 315 313 290 277 273 270 269 271 267 182 138 138 139 138 137 130 130 134 143 140 146 142 137 138 133 131 132 143 150 146 163 218 235 240 239 225 160 110 111 166 209 202 220 226 249 271 291 296 274 251 240 234 226 204 204 195 201 236 253 267 271 278 293 302 281 246 147 135 138 144 143 143 139 136 128 123 123 125 141 207 285 297 300 301 277 287 294 276 248 179 156 158 213 234 225 191 132 132 128 116 113 110 85 75 55 17 19 36 46 64 64 59 56 70 66 58 53 61 61 72 95 104 112 115 121 127 129 94 83 75 74 45
123 123 127 121 128 129 120 132 139 127 127 122 115 336 330 330 331 328 324 320 316 310 318 318 321 323 325 18 82 82 74 56 54 49 41 102 103 125 160 159 169 171 167 111 111 83 80 64 83 80 46 31 6 349 348 344 350 11 16 10 355 343 340 347 95 95 120 146 141 133 128 121 109 74 26 5 31 89 124 124 134 133 129 116 107 139 118 118 110 112 111 108 103 289 286 285 289 293 297 301 301 295 300 290 272 223 205 180 180 158 164 203 208 192 237 241 223 211 253 263 253 342 332 302 262 263 242 241 240 230 230 223 219 213 208 208 244 239 232 294 298 299 303 330 329 325 296 331 283 267 285 285 277 273 289 304 341 9 25 25 21 11 2 344 341 352 349 336 327 307 289 276 300 288 281 282 229 154 139 139 135 130 130 123 123 129 129 139 139 139 134 134 131 124 124 129 143 136 164 224 243 245 238 151 109 106 139 197 210 229 240 282 288 288 284 239 224 215 236 244 240 219 266 278 275 270 267 267 277 288 306 281 202 132 133 140 138 138 135 139 138 138 133 125 129 144 259 281 283 278 273 284 281 279 249 191 170 152 156 161 220 236 210 198 177 142 112 98 91 62 44 26 22 30 49 60 79 77 75 75 81 72 66 75 80 86 90 107 109 112 120 118 112 102 32 33 39 43 37
106 108 113 104 109 114 107 114 129 133 120 119 96 320 323 327 327 326 327 325 319 308 306 313 323 329 342 56 88 82 69 71 72 77 96 120 116 117 117 119 131 154 180 171 122 103 128 129 110 23 10 10 357 348 357 2 6 15 11 11 0 353 348 356 91 117 133 145 129 125 125 103 62 20 7 109 124 129 125 116 124 124 139 141 140 156 165 142 119 119 114 111 108 290 289 288 289 292 297 304 306 292 292 290 259 196 187 191 184 165 163 201 203 202 236 230 236 247 338 343 346 353 356 357 357 12 353 278 249 246 230 223 278 277 267 250 302 274 279 314 324 328 332 331 334 334 344 356 358 331 320 300 295 290 305 306 328 1 21 24 18 3 358 352 350 354 354 350 343 332 321 311 320 305 296 242 169 150 142 138 130 125 125 128 125 123 127 132 132 133 121 123 126 119 112 110 122 120 164 229 243 247 241 152 111 105 119 180 240 240 263 275 262 253 249 215 213 221 236 257 260 261 322 321 296 278 265 269 276 265 257 257 0 145 135 130 135 135 129 130 132 142 143 135 138 176 273 287 289 290 290 291 291 277 270 206 173 177 164 168 222 230 204 204 191 162 92 72 70 36 22 17 22 29 40 59 82 89 91 87 90 83 77 100 103 107 108 113 116 119 120 55 39 34 21 21 24 29 36
97 97 100 101 102 104 97 95 102 115 91 96 92 329 311 317 323 326 330 329 319 311 306 313 324 333 23 81 92 89 81 71 98 101 110 130 128 128 126 122 114 124 0 140 122 119 108 103 69 23 352 354 349 345 347 358 8 24 22 11 354 352 358 37 112 121 133 145 127 119 116 84 57 40 0 128 127 131 131 127 122 128 125 130 138 156 162 155 133 124 116 115 0 291 290 289 290 289 291 295 304 316 304 290 187 172 181 192 190 180 172 191 199 221 302 303 308 308 330 337 343 350 352 0 7 16 14 353 299 335 298 281 330 336 342 343 350 312 303 303 299 306 317 309 319 322 335 348 356 348 341 310 303 307 315 315 328 1 17 19 19 1 354 354 358 359 358 354 349 337 330 328 334 316 294 242 151 145 141 142 134 129 129 135 135 132 131 128 127 124 117 118 120 119 109 106 109 107 146 229 244 245 237 237 167 118 111 117 189 267 278 275 230 228 222 225 233 243 251 277 279 296 323 327 327 291 244 257 264 265 245 206 166 152 141 130 132 137 133 128 128 138 149 146 152 264 264 284 287 293 300 255 256 261 252 179 173 184 171 177 225 222 207 214 207 162 18 18 42 32 26 17 19 45 56 70 91 94 97 94 108 107 101 100 110 111 113 105 103 103 97 18 15 17 17 19 23 29 43
98 98 98 103 103 102 79 78 79 84 88 88 59 308 310 318 322 322 329 331 323 316 311 316 319 350 350 90 107 100 96 96 115 120 128 127 124 127 131 102 93 90 33 70 93 100 42 42 31 6 345 345 347 345 344 355 12 27 28 14 2 6 38 93 110 117 129 142 131 131 114 110 107 111 119 123 116 121 109 114 112 118 100 100 112 143 144 149 138 125 125 119 120 304 300 295 296 289 289 292 294 308 304 268 161 163 180 193 194 192 188 200 208 259 316 329 330 324 330 332 337 345 349 2 11 17 19 13 0 358 344 329 332 332 341 351 5 4 328 300 288 288 297 298 312 319 328 343 353 357 357 322 303 309 302 311 316 330 355 12 11 356 352 354 359 356 0 358 353 343 339 339 339 303 229 173 164 149 144 151 148 142 138 138 138 136 132 129 126 120 118 115 114 113 110 107 104 103 102 127 226 247 245 233 172 134 122 121 223 261 259 244 221 223 222 272 283 287 287 302 290 284 267 273 0 0 222 247 256 257 215 184 164 155 146 131 130 141 143 135 145 131 131 145 148 217 282 286 278 278 273 214 240 245 218 175 179 189 181 194 222 222 204 221 231 229 234 263 21 113 52 33 34 119 91 89 95 95 102 106 117 125 121 121 113 107 105 76 55 37 26 10 11 15 19 19 25 35 53
98 99 100 93 90 83 79 71 78 84 92 90 11 302 310 316 317 313 323 329 329 321 314 310 311 322 81 107 113 108 104 107 119 123 128 123 117 113 112 57 47 47 30 43 53 49 40 31 10 352 339 337 343 342 341 353 13 28 33 21 2 38 78 78 104 105 111 129 144 140 121 136 140 146 146 121 103 100 109 100 96 97 113 116 116 115 125 122 126 123 121 121 0 308 311 308 296 292 288 288 284 287 240 181 158 158 158 177 198 201 200 252 287 306 316 316 324 328 323 324 327 335 342 2 14 19 19 19 13 4 1 347 331 323 335 351 0 8 349 307 293 282 286 289 302 316 328 335 335 352 1 6 333 302 298 305 315 330 348 3 2 352 356 358 354 349 355 358 353 347 347 345 164 181 186 180 167 150 146 150 147 145 141 139 142 137 132 132 131 123 119 119 114 111 112 113 111 106 101 118 226 249 242 223 172 145 130 129 224 241 227 217 229 238 243 291 295 299 303 307 298 279 267 213 194 192 221 244 248 240 193 176 162 155 155 147 132 130 140 148 145 137 126 132 147 271 282 281 263 245 217 225 242 226 190 180 183 188 192 196 205 203 210 231 233 226 225 226 208 182 172 167 157 176 125 98 95 92 95 103 102 108 118 121 103 99 90 34 16 10 12 10 11 17 19 22 32 46 54
96 97 96 70 61 59 66 84 89 91 99 93 317 305 306 305 306 302 305 312 319 311 304 300 302 353 94 109 116 116 113 114 113 119 123 112 110 98 78 52 45 19 19 60 35 29 50 28 351 345 335 330 338 338 341 354 11 16 33 37 30 46 64 92 104 103 109 127 137 147 138 151 160 169 163 127 110 102 102 117 121 118 134 137 136 128 134 127 122 126 124 124 307 303 313 320 308 297 287 287 281 267 228 172 169 164 160 194 221 226 231 298 299 300 306 300 308 318 307 313 317 317 318 336 3 15 18 15 9 6 2 347 327 322 329 346 356 9 7 335 321 292 292 292 285 289 302 297 317 345 2 10 345 307 303 305 313 327 336 349 351 349 359 1 1 351 347 351 356 354 353 0 165 181 186 180 179 156 149 147 144 143 139 138 141 141 136 136 139 136 126 117 114 113 119 120 117 114 108 116 233 244 231 208 171 149 149 137 164 227 236 224 295 295 293 308 301 298 301 316 320 276 235 200 193 194 229 235 235 229 199 186 173 163 153 145 133 124 133 147 151 142 126 123 188 267 273 272 244 244 219 218 242 238 201 181 198 190 187 209 209 192 213 226 220 216 223 217 198 181 178 178 179 194 198 159 100 91 91 96 86 92 98 104 73 62 48 19 6 2 11 10 10 12 18 21 30 46 49
93 86 78 63 61 67 77 100 100 100 105 101 74 306 306 304 303 302 300 305 311 310 295 289 294 75 102 112 112 112 115 113 98 102 108 112 78 65 55 54 42 13 41 42 9 28 48 17 341 340 344 338 335 337 336 342 355 39 53 50 45 78 87 100 105 102 108 119 127 144 147 151 155 164 178 165 133 124 120 126 131 135 129 131 135 135 129 131 131 126 130 303 300 296 297 306 321 327 308 292 262 221 190 174 175 174 175 194 263 270 286 302 297 297 298 297 289 290 291 300 306 311 307 327 0 15 16 14 10 7 1 353 335 332 329 342 341 355 12 18 4 344 315 292 294 289 290 288 297 326 356 4 351 318 310 306 312 322 322 330 339 344 348 356 357 348 347 351 355 161 156 156 163 180 187 188 189 168 153 153 144 141 140 135 135 135 134 134 142 139 133 120 115 117 115 115 116 114 111 117 117 224 241 223 197 164 151 145 219 279 287 296 318 321 317 308 311 308 309 324 6 0 0 0 192 196 225 225 216 210 196 189 175 163 151 141 129 120 127 144 153 144 132 132 132 211 258 262 247 230 212 218 247 218 178 189 207 184 185 220 211 192 215 221 215 215 220 219 203 189 181 179 184 204 213 196 106 90 82 83 72 73 74 75 37 26 26 21 15 9 5 10 10 12 16 29 47 56 39
93 80 80 92 89 90 96 111 109 107 105 95 333 304 310 309 308 302 302 303 310 320 307 307 291 300 96 103 108 102 105 101 90 91 90 87 63 60 59 56 48 45 63 358 358 356 33 32 8 348 346 341 340 336 335 344 4 74 90 90 81 109 106 108 105 101 101 105 113 126 142 151 162 163 175 165 137 124 124 114 118 125 129 89 102 119 116 116 124 124 115 0 299 296 298 302 316 322 315 299 262 191 189 180 184 188 208 246 315 315 315 332 319 308 304 296 287 284 291 292 298 302 291 306 346 10 11 14 12 4 4 356 354 356 344 333 341 352 18 24 4 356 336 309 309 300 293 295 291 305 341 320 350 351 328 318 310 313 325 330 337 343 348 354 352 345 236 192 165 159 150 150 163 157 174 184 193 197 179 155 140 138 137 131 130 129 128 125 138 142 133 136 124 116 121 108 104 110 113 109 119 219 239 217 187 156 151 155 219 311 316 318 304 309 311 313 288 298 306 287 304 79 96 0 0 183 225 205 202 201 196 193 178 161 152 141 126 125 115 119 137 146 143 135 132 211 252 255 239 225 219 239 238 183 166 200 206 178 178 202 225 208 201 217 216 214 221 210 192 184 183 180 188 206 220 211 123 100 79 74 69 64 60 55 32 20 12 13 13 10 8 10 12 13 18 56 58 50 69
97 98 96 116 115 113 112 112 110 110 107 70 315 308 316 314 311 311 310 304 300 307 325 324 306 357 92 98 100 84 81 84 89 83 75 68 71 71 71 78 63 59 53 346 344 357 26 13 3 353 345 340 338 335 342 353 29 106 105 113 113 127 128 121 112 104 102 106 111 115 130 152 168 163 167 167 146 120 112 105 102 102 94 75 82 88 107 110 116 113 104 300 297 302 303 303 309 315 312 252 185 185 191 191 219 243 280 295 321 333 337 331 322 312 303 295 291 285 286 281 286 290 276 278 278 300 232 299 0 328 352 347 348 354 348 334 338 348 16 19 2 2 352 327 318 318 312 314 305 297 298 308 330 343 334 322 318 319 322 328 335 341 347 358 358 161 181 181 182 172 151 138 142 151 163 177 194 205 191 157 139 133 132 128 126 122 119 113 113 126 139 137 145 139 145 128 112 110 116 112 121 213 234 210 173 151 157 250 305 300 300 304 263 263 268 278 264 273 282 249 214 128 92 0 83 135 199 193 201 200 192 192 189 176 163 154 144 126 111 111 127 133 141 139 140 215 250 250 237 228 231 246 248 216 156 161 203 200 178 216 231 207 201 220 216 218 215 203 191 186 182 176 184 208 208 218 211 204 120 73 69 59 52 45 20 10 8 10 10 9 8 15 22 30 43 114 121 120 101
95 105 112 116 116 114 113 107 106 109 104 94 345 314 317 316 314 312 317 307 300 307 322 330 324 66 91 91 87 66 63 77 83 90 80 72 85 86 87 78 48 54 26 334 340 355 8 0 356 350 345 340 336 337 347 15 0 114 129 117 122 138 141 136 118 114 106 109 108 101 111 145 167 163 164 164 167 159 128 128 116 102 81 102 104 104 106 107 110 108 0 301 300 302 311 311 311 316 289 192 156 158 188 207 290 314 326 320 320 328 333 331 304 297 294 290 289 281 281 274 272 274 265 261 249 235 214 228 262 328 310 326 334 331 342 329 330 338 5 5 3 356 3 0 338 322 317 314 308 305 302 291 304 321 327 311 318 320 302 310 323 323 300 346 83 135 157 180 184 172 144 135 140 152 158 172 194 209 201 164 142 132 132 129 130 126 121 113 108 112 123 120 138 150 158 156 138 121 128 119 126 213 230 203 203 156 154 239 293 265 261 262 239 245 252 258 270 268 261 249 215 186 0 208 106 106 116 141 184 206 201 187 180 173 165 158 147 126 114 108 115 115 127 134 137 211 211 248 244 237 233 243 250 185 145 161 201 194 182 234 240 203 202 224 221 218 207 198 198 194 197 181 171 182 208 214 212 242 280 57 62 54 46 35 10 4 7 8 6 6 7 9 63 87 103 133 139 152 166
94 103 108 114 105 105 106 100 100 101 103 30 322 316 314 313 315 317 325 315 304 307 321 330 341 100 100 97 88 82 68 71 83 84 80 83 100 96 85 60 57 48 351 324 327 340 354 341 341 341 337 344 340 337 31 99 135 143 143 133 134 143 150 154 137 126 113 112 115 115 106 113 138 158 158 161 157 161 148 132 122 105 95 109 108 106 102 104 112 113 298 298 301 304 311 318 320 234 166 163 152 162 219 264 282 294 313 318 305 307 309 309 269 265 272 274 283 289 282 272 267 266 253 241 224 213 221 235 248 269 256 275 297 252 266 302 315 298 313 348 320 332 355 357 310 306 306 310 294 292 288 253 264 279 298 265 283 297 256 262 267 279 242 167 135 139 158 184 192 170 149 142 145 151 156 170 167 195 213 208 186 148 132 130 132 127 121 115 112 110 111 112 123 144 146 160 153 137 145 139 128 134 204 227 197 159 187 260 270 237 236 236 267 267 268 269 288 274 253 253 230 221 205 208 213 140 114 133 172 206 195 184 175 169 165 162 152 133 132 114 114 115 111 114 117 128 197 244 249 244 245 254 247 153 136 157 195 186 193 249 240 189 189 200 228 222 201 195 190 194 207 183 165 183 206 215 227 262 277 45 57 51 40 40 14 5 4 4 2 12 22 36 137 135 133 133 133 145 169
96 96 97 97 93 97 99 94 96 99 96 331 318 316 314 315 318 324 328 320 320 310 315 324 337 107 111 105 95 92 79 79 83 73 82 95 102 96 75 53 63 12 12 333 315 302 308 295 318 327 337 342 340 343 61 102 128 144 145 139 139 141 156 156 165 155 131 117 116 131 126 124 133 143 149 153 137 145 142 111 100 96 104 107 108 108 106 105 103 110 0 296 299 304 303 304 303 161 151 154 153 204 270 278 282 266 266 280 268 265 264 269 246 250 265 277 282 291 284 280 268 260 253 227 213 210 229 229 241 247 243 240 244 258 262 273 288 251 253 263 320 228 249 304 239 259 275 290 245 245 241 223 231 240 250 248 251 251 256 242 245 248 225 162 141 141 164 187 191 168 168 153 147 148 149 155 167 194 217 215 202 153 134 131 131 126 120 118 115 114 111 114 114 111 121 114 139 149 133 137 133 139 203 225 195 169 215 246 242 262 265 266 267 305 302 299 304 295 274 245 226 217 205 225 222 160 126 137 164 195 195 184 173 167 162 158 160 161 165 156 132 135 128 126 126 141 204 250 249 269 267 266 221 139 132 151 149 183 181 237 250 224 179 213 232 219 201 185 185 200 209 184 164 182 213 235 251 269 267 271 8 37 45 31 14 4 6 3 97 123 133 140 147 145 141 131 122 132 156
105 104 98 93 98 98 96 94 95 95 78 316 316 316 316 313 314 320 329 329 324 315 316 326 50 107 116 109 102 94 78 73 73 79 91 100 93 86 74 75 45 12 349 333 323 285 274 289 303 313 329 344 351 7 84 100 114 114 119 136 136 135 140 160 169 151 131 120 122 135 133 127 114 120 120 125 97 113 113 116 91 90 101 108 106 108 110 115 106 106 294 293 296 301 273 247 200 161 149 152 152 204 268 270 263 258 261 265 244 235 243 249 254 269 276 277 285 296 299 298 277 277 256 234 222 209 225 240 247 247 249 252 256 258 275 263 255 220 220 212 213 221 224 224 212 228 245 250 226 223 220 223 233 240 244 244 239 235 237 243 247 247 210 154 154 142 150 168 184 182 165 153 150 146 146 150 161 191 221 224 212 157 137 133 129 129 127 123 125 120 116 122 124 113 104 97 104 122 106 119 122 131 185 219 198 188 239 239 260 304 309 308 308 309 308 307 295 285 258 233 222 218 217 237 220 160 135 133 133 152 182 191 187 173 163 150 150 160 167 173 154 148 144 145 143 160 261 279 276 298 298 291 284 157 136 131 149 175 188 241 241 206 181 225 231 212 193 180 184 205 202 202 182 170 207 242 263 271 271 275 316 8 33 21 7 15 27 36 149 152 150 150 150 150 151 155 145 133 130
109 110 106 101 105 98 94 94 96 96 91 327 311 316 316 309 309 320 331 331 325 318 309 0 113 118 118 110 105 97 97 82 74 89 89 93 88 74 57 54 27 11 353 344 339 308 278 301 304 308 325 328 345 357 97 94 95 103 111 125 131 132 141 161 164 146 131 123 125 112 114 110 62 61 51 54 65 79 92 97 92 106 112 104 103 104 110 115 109 105 288 286 286 285 248 231 206 175 155 150 157 254 257 247 252 260 259 256 224 228 238 245 268 282 285 285 282 283 292 274 279 272 252 229 219 213 240 248 252 251 273 277 282 282 252 233 225 215 217 215 209 225 230 219 220 241 248 237 222 222 221 225 241 247 248 244 239 239 239 256 258 260 257 176 144 142 151 168 179 177 163 155 151 141 143 145 152 189 223 223 232 216 162 141 136 130 131 130 128 122 119 124 138 128 105 101 88 92 102 105 106 106 124 161 202 195 254 286 295 313 315 313 311 303 301 298 281 262 241 228 229 232 232 237 254 219 146 111 120 135 167 181 187 178 171 145 134 145 151 178 167 148 151 152 152 169 270 300 304 310 308 303 151 143 137 132 146 169 202 241 230 201 193 230 228 228 205 178 172 183 200 194 180 180 247 266 270 271 268 273 293 325 24 18 12 64 64 100 127 138 148 151 147 149 153 155 154 151 139
109 118 118 120 120 104 96 95 99 98 89 311 314 321 318 310 308 321 331 330 321 315 270 129 129 120 121 117 111 108 104 94 90 100 97 93 88 54 33 29 31 32 11 343 349 349 354 333 314 312 315 326 351 71 97 93 93 100 105 115 124 130 151 163 157 146 146 129 114 76 63 59 62 40 34 43 66 77 82 86 89 101 108 92 96 101 108 106 106 109 107 273 273 265 225 214 192 166 152 155 190 239 234 241 256 266 258 241 224 218 232 242 261 270 278 282 278 277 274 236 235 240 237 222 221 228 240 270 272 272 287 287 284 281 234 212 209 224 225 216 214 229 219 209 220 256 243 226 221 224 226 233 246 253 255 248 245 247 253 268 270 270 257 145 137 141 152 163 173 174 160 154 148 143 139 142 141 143 192 228 232 222 169 144 142 137 135 133 129 124 119 116 136 145 123 148 133 110 101 118 114 114 138 158 198 215 314 309 309 310 310 307 306 295 291 289 289 253 248 246 246 254 259 261 290 0 113 109 115 124 150 171 186 185 171 148 123 123 111 126 165 170 160 156 157 263 300 306 308 308 307 300 151 145 139 133 139 161 213 213 231 221 204 222 235 227 197 169 166 182 200 190 184 206 261 265 264 263 264 265 265 270 281 17 27 113 111 118 127 124 138 146 131 139 148 155 149 154 150
119 122 123 124 109 104 100 98 102 98 71 312 318 324 323 311 308 318 318 318 319 315 266 174 129 120 118 115 111 117 121 113 100 110 103 90 76 25 17 17 20 30 31 15 353 348 353 337 327 325 322 0 149 121 104 100 99 101 102 108 108 119 126 158 162 149 141 122 98 69 53 51 48 38 33 47 67 71 73 77 79 84 84 70 81 89 93 93 101 104 124 264 257 240 218 211 192 164 151 175 230 233 243 243 258 272 265 244 219 234 247 254 259 261 267 273 269 267 254 226 228 230 226 221 229 229 249 298 301 296 294 287 277 259 204 200 210 228 217 210 219 222 207 219 246 246 246 225 223 223 229 237 261 262 256 257 259 263 267 271 272 270 242 145 138 143 148 148 154 163 152 153 150 143 142 141 137 140 198 232 234 221 186 151 147 143 139 135 135 135 129 118 109 123 147 153 157 141 125 133 130 131 149 188 300 314 321 315 311 299 299 299 299 277 274 273 267 236 241 242 266 287 296 295 322 0 105 114 117 121 140 162 162 186 194 189 157 121 112 112 137 162 158 161 175 293 300 305 308 301 282 159 144 143 144 138 135 132 151 215 229 223 212 228 234 219 186 165 161 182 198 193 207 243 246 253 257 260 271 270 268 274 268 171 126 147 134 124 120 108 110 120 100 111 128 143 116 131 142
122 120 117 114 101 103 103 102 103 92 350 312 315 316 321 320 311 307 311 304 305 306 139 149 126 117 115 115 114 117 137 146 115 125 109 78 55 20 18 16 20 28 28 14 351 344 345 337 339 331 315 181 176 146 146 130 110 104 106 100 102 112 108 142 154 149 127 114 96 111 96 81 63 39 39 58 106 79 67 67 68 66 65 70 78 85 88 90 96 97 0 258 244 228 215 211 196 196 168 157 205 228 245 258 270 270 248 220 217 250 257 259 272 268 268 268 262 256 242 242 238 237 232 229 238 256 281 301 305 300 289 274 250 222 195 207 225 228 211 216 216 224 213 216 242 244 222 217 223 229 244 255 259 255 254 257 268 268 270 266 265 265 248 167 148 140 134 139 146 150 149 151 147 143 144 141 137 138 195 226 229 225 199 199 164 151 146 142 144 143 138 118 116 114 132 142 158 150 139 137 134 139 217 309 309 321 315 315 310 302 271 276 278 241 248 252 244 249 249 254 283 300 310 316 0 111 111 112 118 121 119 125 150 186 200 192 169 132 123 113 120 144 153 180 259 293 300 300 305 275 254 185 149 141 142 139 139 128 144 207 234 230 218 228 229 210 182 163 163 156 178 187 202 228 243 250 259 267 285 285 281 274 248 156 152 151 147 135 120 120 120 106 124 101 93 100 104 111 123
119 107 102 97 99 99 103 105 105 100 63 325 318 313 315 316 311 307 306 308 304 327 111 133 120 113 102 102 109 115 117 141 147 93 45 22 21 16 18 17 21 26 27 15 351 339 337 340 340 6 0 152 179 191 174 155 130 115 111 96 95 99 92 112 132 135 121 120 116 141 141 136 130 178 178 140 160 135 83 71 78 67 65 70 80 81 85 81 86 89 0 0 243 234 213 212 213 204 185 173 219 233 266 271 274 265 223 216 236 270 275 276 295 293 283 273 264 260 252 245 250 241 233 253 270 283 293 291 292 293 252 228 213 198 193 198 220 226 214 223 229 215 218 239 253 221 212 220 239 253 263 264 245 247 255 255 251 253 257 263 263 251 207 163 150 139 129 135 145 149 153 156 150 144 143 140 136 136 140 183 223 236 232 206 161 152 150 146 151 153 151 134 129 113 118 132 150 148 148 142 135 133 177 291 302 310 296 292 274 267 243 245 244 231 243 251 253 274 268 271 270 277 290 301 203 146 127 118 124 124 120 121 140 180 198 193 177 148 133 121 121 121 131 157 255 289 291 289 283 226 200 172 153 148 142 143 148 132 141 206 233 219 219 211 230 228 210 195 168 156 169 178 208 232 263 273 278 281 294 293 285 272 206 145 145 129 142 150 147 149 147 142 152 135 116 106 118 114 116
109 102 96 92 92 103 106 107 102 87 345 320 319 314 314 313 312 315 317 324 323 323 57 101 109 102 89 86 88 100 100 119 120 19 6 7 12 14 17 19 21 21 21 26 13 352 336 329 3 87 121 122 160 190 184 168 145 126 111 94 88 87 85 91 91 101 108 123 135 149 150 150 159 182 173 164 160 180 145 92 104 96 91 84 84 84 79 75 71 72 73 53 225 220 213 215 216 210 211 208 241 257 289 291 282 240 240 205 236 281 286 291 295 280 270 264 260 258 254 254 229 220 233 287 290 289 290 281 281 276 270 208 204 203 192 206 221 217 229 234 226 226 236 244 239 214 220 230 239 267 269 265 242 243 250 252 247 250 257 265 258 227 182 171 161 140 129 127 141 149 153 153 158 154 152 144 139 140 142 175 224 238 236 212 161 157 156 152 153 155 158 152 166 151 128 122 123 137 143 135 127 130 177 280 284 290 248 219 222 237 229 225 225 246 258 269 275 281 276 270 270 260 262 255 195 156 135 125 128 122 118 117 133 169 193 183 193 182 157 141 128 125 134 214 280 290 273 251 233 220 185 177 171 157 143 147 147 159 140 143 204 222 202 211 243 233 216 194 176 165 166 177 220 250 263 293 296 294 288 284 281 276 257 165 128 115 126 140 149 146 151 157 152 148 137 126 131 125 116
101 100 97 95 98 110 106 105 90 28 327 320 318 312 311 311 313 317 323 332 336 4 82 86 86 91 88 87 86 91 62 45 30 19 3 6 6 11 15 18 22 17 15 22 9 353 335 324 38 81 99 122 132 173 181 173 153 134 134 122 90 83 86 85 83 91 110 122 136 149 139 148 170 169 165 167 176 192 180 180 152 135 131 121 112 90 79 75 67 63 60 47 40 0 209 228 219 217 241 240 240 255 268 278 285 276 218 243 275 289 286 286 286 244 252 258 266 262 259 250 224 236 236 270 311 305 290 281 267 249 228 201 208 204 193 210 217 219 236 232 225 226 237 237 230 235 244 255 262 268 262 253 244 252 254 249 259 260 263 265 237 194 177 189 182 182 149 129 121 132 132 147 155 157 156 148 143 140 145 174 226 237 235 209 161 159 159 157 152 152 152 160 171 163 141 122 121 125 135 123 116 124 260 269 266 261 213 213 198 217 234 233 235 246 281 282 281 262 253 258 258 239 235 223 198 164 141 132 130 130 120 115 110 118 149 154 188 186 164 150 134 130 145 261 278 280 240 220 225 220 217 173 178 191 169 149 155 167 149 146 201 216 204 230 248 230 212 193 182 175 171 197 197 257 279 284 288 290 265 260 256 260 260 122 114 105 111 122 139 123 130 142 151 110 127 133 120 111 89
97 95 103 111 113 112 102 99 54 54 344 327 326 316 311 311 315 320 325 332 348 51 83 72 73 85 81 81 76 68 45 39 20 11 3 3 7 12 18 21 21 12 15 17 12 1 337 325 58 84 94 107 101 109 140 145 167 158 142 138 90 85 92 88 86 94 110 115 122 133 112 129 161 138 151 152 163 174 189 182 161 152 146 135 105 86 76 72 66 61 55 46 41 41 41 57 0 218 254 255 248 253 260 264 265 250 263 291 295 282 269 258 245 267 274 272 284 269 258 247 245 270 297 309 316 314 294 258 230 214 202 206 213 199 198 211 219 219 236 240 243 243 243 231 230 262 268 272 272 246 246 244 265 268 263 258 272 270 268 268 256 205 178 189 203 198 167 136 119 121 120 133 145 155 154 149 143 142 147 176 176 224 235 230 199 160 156 155 151 149 150 160 167 164 149 129 129 123 124 123 112 112 122 263 262 252 230 210 209 228 280 272 273 278 279 274 270 248 228 240 242 221 222 222 220 200 168 148 146 132 119 111 101 100 113 108 160 179 169 152 135 130 174 254 254 263 237 223 225 234 207 162 176 195 179 154 158 175 156 146 205 219 228 250 234 218 218 205 193 185 180 196 239 273 281 269 270 269 251 254 257 262 267 99 101 105 97 97 102 71 62 64 84 87 99 113 49 29 22
91 92 103 103 117 107 101 95 90 6 332 329 331 316 311 311 313 318 325 335 8 65 78 66 66 70 78 48 43 45 37 29 12 6 1 1 6 12 20 23 16 12 17 18 12 17 17 353 5 73 91 97 99 100 111 116 142 152 153 162 117 98 92 99 97 101 106 106 106 106 101 103 113 124 136 139 150 150 171 173 161 153 146 129 94 87 81 73 82 71 64 64 55 48 51 51 53 0 254 248 234 244 258 263 260 245 271 288 292 264 264 259 255 298 299 295 284 248 240 237 286 300 309 313 292 293 281 214 203 198 196 198 210 208 195 208 216 228 242 249 255 254 245 245 254 264 254 248 244 250 250 255 265 291 293 285 299 290 283 276 225 181 175 192 209 207 180 141 120 116 120 120 129 143 125 144 146 140 141 145 177 231 237 228 194 159 154 153 151 147 146 157 157 161 157 157 154 143 138 145 131 117 142 263 256 244 230 285 289 288 327 319 305 288 289 281 272 262 215 213 226 216 213 221 220 196 171 156 157 140 123 110 100 87 88 90 115 153 153 135 141 133 129 181 240 245 236 235 244 240 191 152 170 198 187 159 160 184 162 154 154 218 226 244 235 218 208 200 190 185 183 231 260 267 267 253 252 251 251 270 275 275 277 274 91 92 83 82 79 55 59 68 79 96 93 80 49 11 11
